4.5905 4.8188 7.9730 54 0 0
1.2865 7.2718 7.9740 76 0 0
-1.4635 6.7408 7.9750 54 0 0
-3.2595 -1.0222 9.5030 136 0 0
-0.6575 -0.8662 7.9780 86 0 0
-1.2895 4.7268 7.9800 118 0 0
-1.3835 5.3448 7.9820 75 0 0
-3.6105 2.4928 7.9860 70 0 0
-0.8135 6.9548 7.9970 53 0 0
2.5155 1.6068 8.0020 61 0 0
-2.9465 2.7758 8.0030 70 0 0
-2.2095 -0.9282 8.0060 68 0 0
1.2755 1.6088 8.0130 79 0 0
1.7525 -2.7262 8.0140 112 0 0
1.8425 1.9408 8.0210 82 0 0
-1.2625 4.9758 8.0220 137 0 0
-1.5195 -0.3852 8.0250 85 0 0
5.8525 -3.2812 8.0330 54 0 0
7.0315 -0.6422 8.0350 105 0 0
-2.2165 2.3448 8.0380 121 0 0
-5.9635 -1.6122 8.0460 94 0 0
1.8735 1.0498 8.0470 107 0 0
-3.0185 1.7258 8.0530 57 0 0
-2.2055 2.3328 8.0590 97 0 0
8.4345 -1.6652 8.0610 102 0 0
5.0635 -0.9912 8.0670 106 0 0
1.8515 2.0658 8.0710 60 0 0
5.0795 -1.0682 8.0740 129 0 0
6.9695 -3.5792 8.0760 81 0 0
5.6355 -4.1292 8.0790 103 0 0
-5.8935 -1.6612 8.0880 152 0 0
-1.2975 5.0198 8.0910 104 0 0
-2.3145 -0.6682 8.0930 81 0 0
7.3795 -0.2462 8.0950 103 0 0
2.4855 -3.0282 8.1000 103 0 0
-5.2195 -1.4142 8.1060 93 0 0
7.0405 -1.3562 8.1100 95 0 0
-6.1555 -1.7282 8.1140 132 0 0
3.8565 -5.2602 8.1170 117 0 0
1.7965 -2.9372 8.1250 65 0 0
6.4815 8.0688 4.9350 75 0 0
0.6965 7.7828 4.9400 65 0 0
6.5105 -4.8592 4.9450 110 0 0
0.9695 0.9028 4.9520 66 0 0
-4.3315 -7.0262 4.9530 95 0 0
7.6205 -0.0482 4.9690 93 0 0
6.6445 -1.1642 4.9730 70 0 0
0.5695 1.7658 4.9920 93 0 0
6.7425 -3.9432 4.9950 53 0 0
7.3275 2.3098 5.0040 73 0 0
5.8945 2.0648 5.0250 106 0 0
0.3415 1.8318 5.0320 73 0 0
-0.5775 6.2838 5.0330 56 0 0
6.7155 8.3938 5.0400 112 0 0
6.3125 -4.2682 5.0430 121 0 0
-4.1175 -7.1452 5.0510 95 0 0
7.7945 -2.8532 5.0530 84 0 0
6.5525 -1.4422 5.0540 74 0 0
4.7025 5.2778 5.0680 114 0 0
1.5245 6.9018 5.0700 98 0 0
-0.4995 0.2748 5.0790 62 0 0
6.5375 -4.2192 5.0820 73 0 0
6.0515 -3.5312 5.0830 112 0 0
-0.7325 6.0888 5.0870 74 0 0
-0.7015 5.1518 5.0920 53 0 0
-4.5545 -6.6142 5.1200 86 0 0
-4.2275 -6.8522 5.1260 59 0 0
-0.8035 5.6428 5.1290 72 0 0
-0.7625 5.5588 5.1300 117 0 0
0.8905 0.1188 5.1350 82 0 0
-1.3725 1.4848 5.1560 93 0 0
-4.2285 -6.8322 5.1660 73 0 0
2.8305 6.0858 5.1680 89 0 0
6.0735 8.1518 5.1700 76 0 0
5.2905 5.8788 5.1740 85 0 0
0.8395 -0.0972 5.1770 137 0 0
-4.2195 -6.8242 5.1900 67 0 0
0.2135 6.8228 5.1940 55 0 0
-4.3725 -6.6792 5.1950 62 0 0
6.6195 2.7158 5.1980 87 0 0
4.7355 4.8028 5.2010 91 0 0
-2.2395 -0.5992 8.1260 96 0 0
5.1085 -0.9872 8.1290 75 0 0
3.8345 -5.2572 8.1420 127 0 0
-3.1435 3.6998 8.1440 53 0 0
4.6125 4.7518 8.1460 56 0 0
-5.3585 -1.5572 8.1490 98 0 0
-0.0335 0.6708 8.1510 57 0 0
-6.0205 -1.7802 8.1570 133 0 0
5.5915 4.6898 8.1590 57 0 0
-3.0995 3.2518 8.1610 53 0 0
-2.2285 -0.9332 8.1620 86 0 0
-6.3015 -1.8842 8.1660 65 0 0
-5.9465 -1.7202 8.1710 134 0 0
-2.3465 -0.8502 8.1720 126 0 0
-6.2155 -1.6892 8.1750 102 0 0
-0.7195 5.6648 9.5120 77 0 0
-2.3775 0.1448 9.5140 145 0 0
3.6225 1.5978 9.5150 101 0 0
-1.9175 4.5208 9.5160 83 0 0
-1.1645 6.5968 9.5230 53 0 0
-3.3705 -1.0952 9.5310 93 0 0
0.1445 -0.2952 0.4560 57 0 0
0.3285 -0.2862 0.4580 112 0 0
-0.1605 -0.4612 0.4610 128 0 0
0.2485 -0.3332 0.4620 123 0 0
-0.2405 -0.4232 0.4660 118 0 0
-0.0045 -0.4102 0.4670 96 0 0
0.2765 -0.3262 0.4700 77 0 0
0.2085 -0.3322 0.4710 120 0 0
0.1065 -0.3552 0.4720 131 0 0
0.0285 -0.3882 0.4730 107 0 0
-0.0445 -0.4472 0.4750 120 0 0
-0.2195 -0.4362 0.4760 142 0 0
-0.2905 -0.3192 0.4770 95 0 0
0.3085 -0.3152 0.4790 101 0 0
-0.4835 -0.0032 0.4800 110 0 0
0.4165 -0.0212 0.4810 81 0 0
0.1585 -0.2662 0.4820 62 0 0
-0.1595 -0.4552 0.4860 53 0 0
-0.2665 -0.3292 0.4880 115 0 0
-0.3935 -0.2902 0.4910 86 0 0
-0.4355 -0.1592 0.4930 111 0 0
-0.1115 -0.4672 0.4970 116 0 0
-0.1955 -0.4442 0.4980 112 0 0
-0.4555 -0.1232 0.5030 58 0 0
0.3445 -0.2602 0.5040 56 0 0
-0.2295 -0.4162 0.5050 114 0 0
0.1065 -0.3622 0.5060 153 0 0
-0.0785 -0.4642 0.5080 147 0 0
-0.1455 -0.4652 0.5110 101 0 0
0.1835 0.4608 0.5130 54 0 0
0.3525 -0.2522 0.5160 77 0 0
-0.3735 -0.2932 0.5170 101 0 0
0.3105 -0.3152 0.5180 118 0 0
0.1025 0.4468 0.5260 65 0 0
0.1955 -0.3092 0.5290 118 0 0
-0.0435 -0.4602 0.5300 122 0 0
-0.2185 -0.4322 0.5350 89 0 0
0.3115 -0.3172 0.5370 106 0 0
-0.2275 -0.4102 0.5400 75 0 0
-0.4835 0.0068 0.5410 64 0 0
0.1335 -0.3682 0.5450 122 0 0
-0.0785 -0.4702 0.5500 88 0 0
0.1065 0.4438 0.5530 84 0 0
0.4005 -0.0542 0.5550 116 0 0
-0.2405 -0.3432 0.5570 70 0 0
0.2935 -0.3282 0.5580 138 0 0
0.0865 0.4208 0.5590 63 0 0
-0.2125 -0.4312 0.5610 106 0 0
-0.8735 0.1288 4.0090 109 0 0
-1.0525 7.6308 4.0170 75 0 0
2.8725 7.9668 4.0190 56 0 0
-4.1185 -5.0212 4.0210 57 0 0
-1.0925 -0.2082 4.0240 142 0 0
3.7025 4.2618 4.0280 56 0 0
-3.7875 -5.5132 4.0370 103 0 0
-3.5965 -5.3122 4.0400 62 0 0
-3.5815 -5.3242 4.0490 101 0 0
-3.6245 -5.2802 4.0550 126 0 0
-0.1945 3.0958 4.0570 136 0 0
-3.6125 -5.3212 4.0580 76 0 0
-3.5715 -5.3332 4.0610 65 0 0
-3.6035 -5.3372 4.0620 98 0 0
3.5795 1.1768 4.0800 112 0 0
3.5365 6.1258 4.0820 98 0 0
-4.4775 -5.1462 4.0880 54 0 0
4.1405 7.6378 4.0920 68 0 0
7.9335 3.5528 4.0980 63 0 0
-1.1315 -0.2232 4.1050 143 0 0
-4.2765 -5.1052 4.1060 55 0 0
5.3885 2.2548 4.1070 148 0 0
-3.8015 -5.4652 4.1090 90 0 0
3.6915 1.1628 4.1140 104 0 0
8.2875 4.3178 2.2250 59 0 0
0.8755 0.3288 2.2270 151 0 0
0.6035 0.6338 2.2280 81 0 0
-1.6215 -6.4452 2.2290 56 0 0
7.4445 5.1508 2.2300 88 0 0
-0.0915 0.0598 2.2350 80 0 0
7.3945 5.2488 2.2410 76 0 0
0.4465 0.6378 2.2430 112 0 0
-1.5255 -6.4232 2.2530 101 0 0
-0.1025 0.0648 2.2590 75 0 0
-1.4985 -6.5292 2.2600 107 0 0
0.9185 0.1868 2.2610 119 0 0
0.4495 0.6368 2.2620 93 0 0
-0.6325 0.3228 2.2750 104 0 0
-0.6305 0.0868 2.2790 139 0 0
0.4895 0.2728 2.2850 112 0 0
0.9225 0.2258 2.3020 106 0 0
-0.0895 0.4478 2.3060 110 0 0
0.8075 0.4328 2.3180 104 0 0
-0.0925 0.4398 2.3220 105 0 0
6.7655 4.2938 2.3230 79 0 0
-0.5365 0.0748 1.9230 100 0 0
-1.9015 -6.7112 1.9360 78 0 0
0.7785 0.3868 1.9410 146 0 0
-1.9375 -6.7172 1.9430 119 0 0
-0.6025 0.1918 1.9530 136 0 0
0.5735 0.5448 1.9540 119 0 0
2.0495 -3.4672 1.9550 53 0 0
-1.8035 -6.7312 1.9570 55 0 0
-0.3755 0.2938 1.9590 112 0 0
0.8625 0.1508 1.9630 95 0 0
-0.0105 0.2538 1.9710 86 0 0
-0.4545 0.0168 1.9850 126 0 0
1.5325 -3.2792 1.9950 112 0 0
0.3745 0.2348 2.0010 84 0 0
0.4025 0.3778 2.0020 81 0 0
0.0115 0.4268 1.1500 110 0 0
0.2505 0.3628 1.1520 105 0 0
-0.1375 -0.3872 1.1530 106 0 0
-1.3045 -6.8382 2.0050 59 0 0
-1.6175 -6.6632 2.0360 54 0 0
7.6785 4.9928 2.0390 90 0 0
-1.7325 -6.5612 2.0420 68 0 0
0.4055 0.3048 2.0430 77 0 0
-1.7815 -6.6672 2.0720 56 0 0
-1.7115 -6.5362 2.0750 104 0 0
0.3125 0.1388 2.0890 106 0 0
-0.0815 0.1538 2.0970 70 0 0
-0.6465 0.2448 2.0980 78 0 0
-1.6775 -6.5252 2.1180 94 0 0
-1.6715 -6.5192 2.1340 120 0 0
-0.5345 0.0688 2.1460 76 0 0
7.7315 5.0758 2.1480 79 0 0
-0.0555 0.4628 2.1490 151 0 0
-1.6495 -6.4192 2.1620 56 0 0
7.3765 4.7158 2.1670 80 0 0
0.8405 0.3618 2.1710 130 0 0
0.8585 -3.4462 2.1780 57 0 0
0.7835 0.4218 2.1810 126 0 0
0.6335 0.4498 2.1820 110 0 0
0.5005 0.3648 2.1910 108 0 0
7.1965 4.7038 2.2150 83 0 0
-0.2505 0.5808 2.3240 127 0 0
6.5635 4.0318 2.3300 132 0 0
0.7895 -0.0652 2.3340 103 0 0
0.4725 0.9018 2.3360 95 0 0
-0.7125 0.1378 2.3540 140 0 0
-2.6835 -6.7312 2.3650 55 0 0
-1.5585 -6.3652 2.3670 76 0 0
7.3875 3.6918 2.3700 66 0 0
-2.6645 -6.7282 2.3770 59 0 0
6.5465 3.8738 2.3900 122 0 0
8.0625 3.6528 2.4010 59 0 0
-0.5395 -0.0312 2.4020 153 0 0
-1.5295 -6.3512 2.4140 78 0 0
-0.5895 0.3268 2.4180 98 0 0
-0.6125 0.3308 2.4340 102 0 0
-1.5135 -6.3202 2.4370 115 0 0
0.0185 -4.3642 2.4470 64 0 0
0.5875 1.1248 2.4530 80 0 0
7.5925 4.8808 2.4540 100 0 0
-0.4715 0.4718 2.4660 127 0 0
0.3775 -0.2842 2.4670 108 0 0
-1.4945 -6.3062 2.4830 65 0 0
0.4795 -0.2742 2.4850 81 0 0
0.5875 1.1878 2.4900 84 0 0
0.3245 -0.3712 2.4960 62 0 0
-1.9125 -6.9712 2.4970 69 0 0
-1.5125 -6.3002 2.5020 92 0 0
5.1055 5.2958 2.5060 64 0 0
5.9455 4.7028 2.5140 72 0 0
-2.6815 -6.5082 2.5150 90 0 0
0.9725 0.1708 2.5170 78 0 0
-2.6345 -6.5582 2.5200 101 0 0
0.5055 1.2318 2.5230 127 0 0
0.4955 -0.2862 2.5260 85 0 0
6.4705 3.7358 2.5290 113 0 0
-2.6275 -6.5262 2.5300 53 0 0
-2.6785 -6.5022 2.5490 80 0 0
6.9165 3.5088 2.5510 104 0 0
1.0005 0.2628 2.5590 96 0 0
6.9305 3.4838 2.5620 100 0 0
-2.5595 -6.3752 2.5630 89 0 0
-0.1615 0.1068 2.5670 70 0 0
7.1895 3.6738 2.5680 65 0 0
4.0005 7.4808 4.1160 69 0 0
-1.1325 -0.0092 4.1230 91 0 0
3.4485 6.0078 4.1290 116 0 0
-3.6235 -5.2422 4.1410 79 0 0
7.7515 -2.6472 4.1490 92 0 0
-0.2785 0.8648 4.1520 86 0 0
-4.0555 -5.0232 4.1570 119 0 0
0.6885 -0.0232 4.1590 108 0 0
-0.8245 1.0198 4.1610 131 0 0
3.7155 1.3198 4.1630 132 0 0
-3.6705 -5.2272 4.1650 137 0 0
0.1085 -0.3722 0.5640 94 0 0
0.1345 -0.3672 0.5650 107 0 0
-0.1715 -0.4542 0.5660 105 0 0
-0.0005 -0.4402 0.5700 71 0 0
-0.4315 -0.1592 0.5720 61 0 0
2.1985 5.0498 9.5460 89 0 0
0.0755 -0.3862 0.5760 107 0 0
-1.2785 6.1288 9.5510 54 0 0
0.3135 -0.3202 0.5770 139 0 0
-2.9325 -1.3372 9.5550 128 0 0
-0.1955 -0.4362 0.5780 116 0 0
3.7085 1.7588 9.5610 84 0 0
-0.2795 -0.3102 0.5810 114 0 0
-3.2725 -1.2112 9.5620 103 0 0
-0.1825 -0.4472 0.5850 114 0 0
-0.0425 -0.4662 0.5870 78 0 0
-0.0865 -0.4752 0.5910 83 0 0
-2.5115 2.3798 8.1770 70 0 0
-0.2535 -0.3292 0.5920 125 0 0
5.2185 -0.9532 8.1780 92 0 0
0.0995 0.4238 0.5980 63 0 0
-0.3235 6.8938 8.1820 102 0 0
0.1835 -0.2792 0.5990 100 0 0
3.3875 -5.4972 8.1900 120 0 0
-0.0325 0.4338 0.6040 80 0 0
1.8745 0.7948 8.1950 65 0 0
-0.8895 3.1168 9.5660 79 0 0
-0.0215 0.3798 0.8810 80 0 0
2.2165 4.9818 9.5720 117 0 0
0.4295 0.3208 0.8830 81 0 0
-3.4675 2.5878 9.5820 57 0 0
0.0815 -0.4082 0.8840 93 0 0
5.5935 -4.1902 9.5860 76 0 0
0.3865 -0.3202 0.8860 137 0 0
-3.3565 -0.9702 9.5870 124 0 0
-0.3595 0.1678 0.8870 88 0 0
4.5015 3.6948 9.5880 112 0 0
0.4565 0.3098 0.8880 99 0 0
0.0405 -0.4442 0.8890 124 0 0
-0.4175 -0.0742 0.8900 112 0 0
-0.1275 0.2798 0.8920 67 0 0
0.3075 0.3168 0.8940 132 0 0
-0.3305 0.3178 0.8950 104 0 0
-0.3625 0.2128 0.8980 103 0 0
0.3495 -0.3202 0.9010 107 0 0
-0.3835 -0.1982 0.9020 89 0 0
0.3905 0.3288 0.9030 121 0 0
-0.1035 0.2448 0.9040 101 0 0
-0.1235 0.2478 0.9050 92 0 0
0.3355 0.3058 0.9070 97 0 0
0.4975 0.2268 0.9080 99 0 0
0.0795 -0.4162 0.9090 106 0 0
-0.3095 0.3278 0.9100 105 0 0
0.4895 0.0128 0.9110 103 0 0
0.4755 0.2978 0.9120 131 0 0
0.1905 -0.3732 0.9130 132 0 0
-0.4295 0.0918 0.9150 121 0 0
0.4225 0.3278 0.9160 130 0 0
-0.4365 -0.0382 0.9170 63 0 0
0.1015 -0.3802 0.9180 128 0 0
0.3935 0.3298 0.9200 118 0 0
-0.3635 0.2038 0.9210 97 0 0
5.9055 -4.8392 5.2130 139 0 0
-0.0635 -0.4612 0.9220 135 0 0
-0.0485 8.8668 5.2150 107 0 0
0.5015 0.2348 0.9230 101 0 0
-0.0905 0.2458 0.9260 87 0 0
-0.8185 6.1128 5.2160 91 0 0
0.4405 -0.0522 0.9270 66 0 0
-0.7375 7.7968 5.2180 79 0 0
0.2335 0.3248 0.9280 105 0 0
5.3835 1.5568 5.2210 84 0 0
0.4535 -0.2312 0.9290 75 0 0
-4.3515 -6.8022 5.2270 83 0 0
-0.2875 -0.3022 0.9300 91 0 0
-4.1985 -6.7952 5.2280 108 0 0
0.2505 -0.3212 0.9310 103 0 0
-0.7545 6.5158 5.2490 107 0 0
0.2295 -0.3512 0.9320 124 0 0
3.7515 4.6528 5.2540 116 0 0
-0.4305 0.0198 0.9330 127 0 0
-1.2185 1.6938 5.2560 138 0 0
0.4775 0.2998 0.9340 91 0 0
-0.7375 6.4748 5.2610 96 0 0
-0.3445 0.3018 0.9350 88 0 0
1.4285 2.2078 5.2690 75 0 0
0.4815 0.1328 0.9360 108 0 0
6.4975 -3.9612 5.2750 61 0 0
0.5065 0.2448 0.9380 85 0 0
-4.2135 -6.7222 5.2820 85 0 0
0.0945 -0.4182 0.9400 71 0 0
-4.2605 -6.6972 5.2860 92 0 0
0.2455 -0.3402 0.9410 90 0 0
6.2885 1.5148 5.2880 75 0 0
0.0255 -0.4582 0.9420 141 0 0
7.7805 1.0028 5.2910 55 0 0
0.2915 -0.2932 0.9440 108 0 0
-4.1395 -6.7432 5.2930 86 0 0
0.0085 0.4058 0.9450 113 0 0
5.1285 1.4028 5.2980 89 0 0
0.1915 0.4598 0.9460 113 0 0
1.0245 1.2208 5.3000 131 0 0
2.2165 2.0798 9.5930 73 0 0
0.4475 0.3198 0.9470 94 0 0
-2.0235 -1.0682 9.5950 125 0 0
-0.4155 -0.0662 0.9490 121 0 0
-2.0635 -1.0562 9.5980 114 0 0
0.4785 -0.0252 0.9500 125 0 0
3.0315 5.1348 9.6010 82 0 0
0.1635 0.4658 0.9520 131 0 0
-0.9075 3.1398 9.6030 102 0 0
-0.2345 -0.3382 0.9530 152 0 0
1.0275 8.0788 9.6070 114 0 0
-0.0815 0.2638 0.9540 81 0 0
-1.7695 2.2678 9.6180 107 0 0
-0.1215 -0.4312 0.9550 109 0 0
0.0555 8.2438 9.6190 82 0 0
0.0365 -0.4522 0.9570 121 0 0
-3.5835 -0.9452 9.6210 120 0 0
0.0045 -0.4642 0.9590 148 0 0
0.6285 8.5998 9.6230 67 0 0
0.4365 0.3298 0.9600 109 0 0
-0.2105 -0.3422 0.9610 118 0 0
7.1905 -1.7412 8.1960 130 0 0
0.2615 -0.3162 0.9620 89 0 0
7.3275 0.4898 8.2020 105 0 0
0.0915 0.4008 0.9630 105 0 0
-2.3645 -0.7492 8.2070 93 0 0
-0.0135 0.3888 0.9640 114 0 0
-5.6585 -1.5502 8.2120 79 0 0
0.4135 0.3128 0.7720 61 0 0
3.7615 -5.2382 8.2130 105 0 0
-0.0565 -0.4702 0.7740 59 0 0
-1.3455 4.6898 8.2160 69 0 0
-0.3445 0.3178 0.7750 77 0 0
-1.0555 5.0098 8.2200 81 0 0
-0.1655 -0.4262 0.7760 101 0 0
4.7615 4.4168 8.2230 117 0 0
0.1635 -0.3612 0.7780 57 0 0
-2.8485 3.4618 8.2290 79 0 0
-0.2985 -0.3132 0.7790 58 0 0
3.7395 4.4888 8.2350 118 0 0
-0.0695 -0.4652 0.7850 62 0 0
-6.2175 -1.6892 8.2360 65 0 0
-0.0345 0.3698 0.7860 75 0 0
-1.0245 -1.3762 8.2420 67 0 0
-0.1645 -0.4142 0.7870 112 0 0
7.1465 -3.5492 8.2460 87 0 0
-0.4475 -0.0322 0.7880 96 0 0
4.1445 5.1038 8.2490 54 0 0
-0.3575 0.1938 0.7900 54 0 0
2.4245 -1.3092 8.2540 104 0 0
-0.0165 0.4098 0.7910 69 0 0
-5.4395 -1.4122 8.2580 95 0 0
0.1355 -0.3912 0.7920 96 0 0
4.4305 4.8488 8.2610 108 0 0
0.1115 -0.3852 0.7930 121 0 0
0.8605 0.8188 8.2640 62 0 0
-0.4085 0.1678 0.7940 64 0 0
2.8245 4.8198 8.2650 127 0 0
-0.1025 0.2868 0.7960 63 0 0
5.3695 -0.9452 8.2710 103 0 0
-0.2545 0.3818 0.7970 116 0 0
5.2515 -4.1782 8.2820 88 0 0
0.0335 -0.4472 0.8000 119 0 0
0.8485 0.8468 8.2860 72 0 0
-0.1645 0.3618 0.8010 82 0 0
-5.2355 -1.0832 8.2890 110 0 0
-0.1065 -0.4622 0.8060 100 0 0
3.6745 -5.0192 8.2920 105 0 0
-0.1475 0.3388 0.8110 77 0 0
-4.6625 -0.3432 8.2950 55 0 0
-0.3245 0.3168 0.8120 53 0 0
-6.2895 -1.8482 8.2970 89 0 0
0.3735 -0.3312 0.8140 118 0 0
-1.2695 5.2528 8.3040 128 0 0
-0.0635 -0.4632 0.8150 73 0 0
1.8285 -3.0352 8.3080 93 0 0
-0.1495 -0.4292 0.8170 86 0 0
-2.0795 -0.6302 8.3090 88 0 0
-0.2765 0.3678 0.8200 70 0 0
-6.5205 -1.7502 8.3160 130 0 0
0.0305 -0.4512 0.8210 95 0 0
5.1885 -4.1182 8.3170 75 0 0
-0.2165 0.3678 0.8230 128 0 0
-2.3375 -0.8622 8.3180 106 0 0
-0.3545 0.1748 0.8240 120 0 0
3.8065 -5.2272 8.3210 122 0 0
-0.1935 0.3648 0.8250 86 0 0
-0.5385 6.4538 8.3250 67 0 0
-0.3995 0.1668 0.8270 107 0 0
-2.0395 0.5918 8.3260 98 0 0
-0.2975 0.3448 0.8320 62 0 0
-0.8045 5.2518 8.3330 117 0 0
-0.0915 0.2648 0.8350 69 0 0
-1.0885 3.0018 8.3340 80 0 0
-0.1645 -0.4032 0.8370 140 0 0
-0.8275 5.2718 8.3400 104 0 0
-0.1345 -0.4412 0.8400 96 0 0
5.7135 -1.5622 8.3440 84 0 0
-0.3535 0.2608 0.8410 72 0 0
2.4765 -2.7332 8.3470 112 0 0
-0.0285 -0.4632 0.8430 54 0 0
-2.6395 2.4558 8.3510 56 0 0
0.1085 0.4388 0.8440 133 0 0
2.4955 5.3178 8.3520 65 0 0
-0.4315 0.1038 0.8460 99 0 0
-1.4365 4.8128 8.3540 110 0 0
0.0175 -0.4552 0.8470 94 0 0
-4.3575 -2.0952 8.3550 83 0 0
0.2875 0.3158 0.8510 125 0 0
-0.1335 5.7938 8.3560 89 0 0
-0.1805 -0.3562 0.8520 85 0 0
-1.4785 4.7868 8.3640 84 0 0
-0.1995 -0.3382 0.8540 93 0 0
-6.6005 -1.7652 8.3650 145 0 0
-0.3135 0.3278 0.8550 57 0 0
-2.0495 0.5068 8.3670 100 0 0
-0.1395 -0.4342 0.8570 108 0 0
-2.3495 -0.6992 8.3690 85 0 0
-0.3585 0.2628 0.8580 94 0 0
-5.2435 -0.3092 8.3730 57 0 0
-0.3665 0.2168 0.8590 53 0 0
2.7995 4.7598 8.3750 81 0 0
0.4815 0.1018 0.8600 102 0 0
-2.2335 -0.5842 8.3780 86 0 0
0.3855 -0.3112 0.8610 130 0 0
7.3035 -1.7952 8.3860 93 0 0
-0.4095 -0.1382 0.8620 75 0 0
-1.4185 4.8298 8.3880 84 0 0
-0.0345 0.3388 0.8650 56 0 0
5.3105 -4.1932 8.3890 87 0 0
0.0445 -0.4432 0.8660 93 0 0
-0.9065 5.9898 8.3910 124 0 0
-0.1165 -0.4452 0.8670 114 0 0
-2.2845 -0.9172 8.3970 94 0 0
-0.4345 -0.0162 0.8690 96 0 0
2.9155 -1.3012 8.3990 114 0 0
0.3555 0.3218 0.8700 118 0 0
4.5805 -3.7602 8.4000 111 0 0
-0.3735 0.1538 0.8710 121 0 0
3.5725 -1.3462 8.4090 113 0 0
0.4135 0.3238 0.8720 107 0 0
3.6875 3.0348 8.4100 108 0 0
0.3275 -0.3182 0.8730 99 0 0
-2.2465 -0.9262 8.4110 75 0 0
-0.0895 0.2518 0.8740 94 0 0
-0.0035 7.2578 8.4180 84 0 0
-0.1955 0.3498 0.8750 115 0 0
-2.3675 -0.7142 8.4240 94 0 0
-0.0845 -0.4632 0.8770 107 0 0
1.7925 -3.1052 8.4250 85 0 0
-0.1445 -0.4252 0.8780 127 0 0
3.2575 -6.0222 8.4340 63 0 0
0.3475 -0.3222 0.8790 107 0 0
-1.0795 5.5978 8.4380 98 0 0
0.4365 -0.1512 0.8800 78 0 0
3.1695 6.3078 8.4550 79 0 0
4.4415 -3.8152 8.4580 75 0 0
-0.3465 -0.3302 0.1960 83 0 0
-1.0675 5.9638 8.4600 76 0 0
0.0595 -0.3802 0.1970 56 0 0
3.5935 -1.5152 8.4670 116 0 0
0.0275 -0.4102 0.1980 66 0 0
8.1255 -0.9872 8.4810 96 0 0
-0.2935 -0.4322 0.2020 102 0 0
7.0675 -2.8692 6.7690 127 0 0
-0.5125 -0.0772 0.2060 73 0 0
-0.6055 0.8328 4.1670 70 0 0
-0.4635 -0.2632 0.2110 102 0 0
-0.0945 -0.4462 0.2120 99 0 0
-0.8005 0.1098 4.1860 70 0 0
-0.1945 -0.4752 0.2140 120 0 0
4.1255 1.4468 4.1870 105 0 0
0.3065 -0.2852 0.2160 89 0 0
-1.0285 -0.2892 4.1910 123 0 0
0.1545 -0.3662 0.2170 104 0 0
1.4755 7.7818 4.1920 95 0 0
0.3785 -0.0352 0.2200 139 0 0
-3.4265 -5.5212 4.1980 88 0 0
0.3935 -0.0282 0.2210 139 0 0
0.6985 -0.0302 4.1990 114 0 0
-0.0685 0.4848 0.2230 64 0 0
-0.0515 1.1468 4.2050 98 0 0
-0.1725 -0.4682 0.2250 60 0 0
3.5655 1.0438 4.2100 65 0 0
0.2255 0.4898 0.2260 86 0 0
-3.9525 -5.0762 4.2250 88 0 0
-0.0995 -0.4522 0.2270 124 0 0
6.1465 -4.1592 4.2300 53 0 0
0.4345 0.2188 0.2290 57 0 0
-0.2045 3.1538 4.2380 73 0 0
-0.1875 -0.4742 0.2300 106 0 0
5.1295 2.3428 4.2500 78 0 0
-0.2095 -0.4732 0.2310 123 0 0
0.7815 -0.1022 4.2510 101 0 0
0.3345 -0.1092 0.2340 127 0 0
6.2445 2.2618 4.2550 64 0 0
-0.2195 -0.4612 0.2360 90 0 0
3.8145 1.2768 4.2560 59 0 0
-0.5445 0.0638 0.2390 106 0 0
-4.2685 -5.2752 4.2620 70 0 0
-0.5165 -0.0492 0.2420 86 0 0
-4.2445 -6.0282 4.2650 89 0 0
-0.4875 -0.1692 0.2440 76 0 0
4.8075 3.6228 4.2680 115 0 0
-0.0615 -0.4262 0.2450 84 0 0
8.1065 0.6568 4.2700 97 0 0
-0.3385 -0.3312 0.2460 79 0 0
4.6205 3.9038 4.2720 82 0 0
0.0935 0.5098 0.2470 105 0 0
-0.2555 3.2338 4.2750 114 0 0
0.1585 -0.3512 0.2480 107 0 0
-0.0075 1.1158 4.2850 63 0 0
0.2005 -0.3862 0.2490 89 0 0
-4.0565 -5.3392 4.2950 73 0 0
-0.3965 -0.3152 0.2530 112 0 0
-3.6885 -5.1822 4.2990 99 0 0
0.4085 0.0038 0.2540 87 0 0
-0.0555 1.2768 4.3030 154 0 0
0.0615 -0.3742 0.2560 128 0 0
0.8855 8.3018 4.3080 83 0 0
0.1695 -0.3562 0.2580 119 0 0
4.1325 1.5268 4.3100 88 0 0
0.2945 -0.1472 0.2590 111 0 0
2.7965 6.7598 4.3290 67 0 0
0.3085 -0.2782 0.2610 96 0 0
4.2585 1.5358 4.3340 138 0 0
0.0915 0.5028 0.2620 64 0 0
8.3955 0.2108 4.3400 72 0 0
0.4295 0.2148 0.2630 84 0 0
-0.0915 1.3068 4.3410 158 0 0
-0.5285 0.0328 0.2640 86 0 0
0.0285 1.3698 4.3480 128 0 0
-0.0865 0.4898 0.2650 97 0 0
3.4925 4.3508 4.3490 147 0 0
0.0825 -0.3682 0.2660 116 0 0
-0.7585 1.1368 4.3520 161 0 0
-0.0185 -0.3932 0.2670 117 0 0
5.3325 2.4098 4.3550 117 0 0
-0.0445 -0.4112 0.2680 111 0 0
0.7465 0.3338 4.3560 110 0 0
0.4115 0.0188 0.2690 99 0 0
-1.1345 -0.3492 4.3580 114 0 0
-0.2675 -0.4382 0.2710 69 0 0
3.7165 7.2178 4.3620 99 0 0
0.2625 -0.3752 0.2720 77 0 0
-4.0795 -5.7192 4.3690 87 0 0
-0.1975 -0.4652 0.2730 69 0 0
4.3305 1.5568 4.3720 85 0 0
0.1355 -0.3162 0.2760 95 0 0
5.4485 4.5328 4.3760 89 0 0
-0.5085 -0.0402 0.2770 72 0 0
4.7515 1.7538 4.3810 139 0 0
-0.3345 -0.3522 0.2780 106 0 0
4.1815 5.0018 4.3860 157 0 0
0.3895 -0.0242 0.2790 73 0 0
-4.1585 -6.0342 4.3970 67 0 0
-0.0535 -0.4312 0.2810 94 0 0
-0.3095 3.4078 4.4000 90 0 0
0.3245 -0.1282 0.2820 130 0 0
3.9965 6.6838 4.4080 67 0 0
0.1425 -0.3172 0.2900 62 0 0
-0.9995 0.0438 4.4110 88 0 0
0.2075 0.4838 0.2910 65 0 0
4.1825 4.9978 4.4120 116 0 0
0.2275 -0.3892 0.2920 64 0 0
4.4425 1.6008 4.4200 147 0 0
-0.2945 -0.4122 0.2930 90 0 0
-0.8495 -0.3502 4.4210 92 0 0
-0.0715 -0.4432 0.2940 116 0 0
-0.8325 0.0358 4.4280 122 0 0
-0.0435 0.4658 0.2960 61 0 0
-4.1515 -6.0472 4.4350 83 0 0
0.2245 0.4738 0.2970 106 0 0
-0.0245 -0.4252 0.0850 96 0 0
0.3245 -0.1312 0.3000 85 0 0
0.2265 -0.4592 0.0870 104 0 0
-0.0515 -0.4312 0.3040 123 0 0
0.2875 -0.3872 0.0920 125 0 0
0.3355 -0.1122 0.3050 82 0 0
0.3135 -0.1132 0.0930 115 0 0
0.1605 -0.3372 0.3100 108 0 0
-0.2155 -0.4762 0.0960 115 0 0
-0.2625 -0.4372 0.3110 121 0 0
-0.1635 -0.4582 0.0990 123 0 0
-0.3015 -0.3932 0.3120 81 0 0
0.0755 -0.4132 0.1000 105 0 0
-0.1145 -0.4682 0.3150 96 0 0
0.2775 -0.3982 0.1040 98 0 0
-0.0515 -0.4302 0.3200 99 0 0
0.2225 -0.4452 0.1060 106 0 0
-0.1095 0.4828 0.3220 75 0 0
0.0035 -0.4242 0.1070 87 0 0
0.0925 -0.3622 0.3230 110 0 0
-0.0875 -0.4142 0.1080 113 0 0
0.4185 0.1818 0.3240 97 0 0
-0.3685 -0.3942 0.1090 107 0 0
0.3005 -0.1432 0.3250 65 0 0
-0.0315 -0.4192 0.1100 90 0 0
0.3085 -0.3442 0.1130 98 0 0
0.1405 0.5368 0.1140 75 0 0
0.3315 -0.0882 0.1160 94 0 0
-0.1195 -0.4432 0.1170 120 0 0
0.2975 -0.1452 0.1190 104 0 0
0.1815 -0.4232 0.1210 107 0 0
-0.1525 -0.4572 0.1220 96 0 0
0.0175 -0.4192 0.1230 129 0 0
0.3075 -0.3172 0.1270 90 0 0
-0.1935 -0.4702 0.1300 95 0 0
0.4055 0.0658 0.1330 111 0 0
0.2465 -0.4252 0.1340 122 0 0
0.2695 0.5008 0.1350 66 0 0
0.3815 -0.0322 0.1370 117 0 0
0.3535 -0.0512 0.1380 123 0 0
-0.5065 -0.2152 0.1390 86 0 0
0.0945 -0.4002 0.1400 139 0 0
0.2025 -0.4232 0.1410 118 0 0
0.0985 -0.3812 0.1440 117 0 0
0.2955 0.4858 0.1470 110 0 0
-0.0885 0.5318 0.1480 62 0 0
-0.1355 -0.4572 0.1500 96 0 0
0.1955 -0.4152 0.1520 115 0 0
0.1915 0.4998 0.1530 102 0 0
-0.3995 -0.3222 0.1540 83 0 0
-0.3495 -0.3852 0.1550 68 0 0
-0.2525 -0.4512 0.1560 89 0 0
-0.1965 -0.4722 0.1570 78 0 0
-0.5135 -0.0662 0.1580 124 0 0
0.2975 -0.3352 0.1590 108 0 0
0.2875 -0.3572 0.1600 109 0 0
0.1245 -0.3462 0.1610 97 0 0
-0.0655 -0.3952 0.1640 103 0 0
-0.4125 -0.3132 0.1650 116 0 0
0.0975 -0.3712 0.1670 112 0 0
-0.1855 -0.4662 0.1680 134 0 0
0.1405 0.4848 0.1690 68 0 0
0.1125 -0.3212 0.1720 86 0 0
0.3435 -0.0702 0.1740 113 0 0
-0.0065 -0.4092 0.1760 106 0 0
-0.1075 -0.4422 0.1780 123 0 0
-0.1635 -0.4642 0.1790 132 0 0
-0.5325 -0.0302 0.1810 77 0 0
0.3725 -0.0352 0.1820 131 0 0
0.1595 0.4898 0.1830 109 0 0
-0.0295 -0.4022 0.1870 67 0 0
-0.3995 -0.3182 0.1880 100 0 0
-0.0965 -0.4392 0.1890 117 0 0
-0.2685 -0.4382 0.1910 62 0 0
0.2975 -0.3292 0.1930 112 0 0
0.0425 0.5538 0.1940 116 0 0
-0.7325 0.2638 -0.0220 76 0 0
-0.6905 0.3188 -0.0210 68 0 0
-0.6325 0.3608 -0.0200 57 0 0
-0.6235 0.3038 -0.0160 63 0 0
-0.6495 0.3238 -0.0150 60 0 0
-0.6275 0.2768 -0.0140 75 0 0
-0.2975 -0.5672 -0.0060 93 0 0
-0.3245 -0.5382 -0.0050 56 0 0
0.9315 -0.2782 -0.0040 68 0 0
0.7455 -0.4082 -0.0010 58 0 0
-0.2695 -0.5512 0.0010 79 0 0
-0.2575 -0.5602 0.0020 54 0 0
-0.4125 0.4448 0.0040 64 0 0
0.7885 -0.1872 0.0050 60 0 0
-0.2535 -0.5322 0.0070 67 0 0
0.1725 0.5558 0.0110 59 0 0
-0.1325 -0.5112 0.0120 61 0 0
0.6385 -0.2262 0.0130 84 0 0
1.0525 0.4298 0.0160 53 0 0
0.7555 0.1748 0.0170 73 0 0
0.3175 -0.5132 0.0180 84 0 0
0.9045 0.3988 0.0190 68 0 0
-0.2605 0.3388 0.0210 95 0 0
-0.0535 -0.4922 0.0230 62 0 0
0.4415 0.7008 0.0240 59 0 0
0.4985 -0.2102 0.0250 79 0 0
0.5395 0.0108 0.0270 73 0 0
0.2695 -0.4842 0.0280 90 0 0
-4.2845 -5.3592 3.2970 71 0 0
0.2465 -0.4902 0.0290 82 0 0
-4.2585 -5.2952 3.3140 91 0 0
0.3455 0.5328 0.0300 59 0 0
-0.9565 -0.0902 3.3260 145 0 0
0.2155 -0.5302 0.0310 77 0 0
-3.4595 -5.6562 3.3280 99 0 0
0.1365 -0.5382 0.0320 58 0 0
0.9285 0.2338 3.3290 134 0 0
0.1625 -0.5292 0.0330 68 0 0
1.7295 0.6028 3.3310 72 0 0
0.0835 0.6078 0.0350 68 0 0
6.1815 2.1338 3.3400 149 0 0
0.3005 -0.4092 0.0360 119 0 0
6.3745 2.0958 3.3440 125 0 0
0.2385 0.5278 0.0390 82 0 0
-0.0605 -0.4252 0.0410 114 0 0
0.4405 8.2878 3.3520 87 0 0
0.4025 -0.0742 0.0430 83 0 0
-1.2495 -6.8322 3.3540 66 0 0
0.3905 -0.0542 0.0450 82 0 0
-0.7785 -0.1792 3.3550 119 0 0
0.2515 -0.4642 0.0460 132 0 0
-0.5785 0.4968 3.3650 167 0 0
0.0165 0.5858 0.0470 75 0 0
-0.1235 8.1908 3.3760 129 0 0
-0.1935 -0.4692 0.0480 133 0 0
5.4975 5.3818 3.3770 130 0 0
-0.1295 -0.4202 0.0490 118 0 0
8.9845 3.1928 3.3880 89 0 0
0.1705 0.5038 0.0500 110 0 0
0.1965 2.5258 3.3930 57 0 0
-0.0405 -0.4322 0.0510 114 0 0
-4.4785 -5.1292 3.3980 67 0 0
-0.4035 -0.3932 0.0520 91 0 0
0.3085 2.5138 3.4040 54 0 0
-0.3025 -0.4552 0.0540 74 0 0
0.5435 0.0368 3.4270 124 0 0
0.4385 0.2098 0.0550 115 0 0
-4.3425 -5.1992 3.4300 101 0 0
0.2605 0.5248 0.0590 66 0 0
-0.4365 -0.3112 0.0600 86 0 0
-0.0115 0.5458 0.0620 68 0 0
8.8155 2.0668 3.4340 85 0 0
0.2425 -0.4622 0.0640 111 0 0
-4.3845 -5.1572 3.4360 106 0 0
0.3825 -0.0182 0.0670 138 0 0
-4.2365 -5.2892 3.4420 63 0 0
-0.0005 0.5608 0.0680 64 0 0
7.3295 3.9708 3.4620 65 0 0
-0.0275 -0.4312 0.0690 114 0 0
-4.1855 -5.3332 3.5050 61 0 0
0.2885 -0.4082 0.0700 101 0 0
-0.5445 0.0178 3.5120 66 0 0
0.1435 0.5548 0.0710 110 0 0
-3.4685 -5.6222 3.5130 94 0 0
0.0045 -0.4362 0.0760 113 0 0
1.9025 7.1078 3.5220 54 0 0
-0.3155 -0.4382 0.0770 121 0 0
5.5365 3.0698 3.5620 116 0 0
0.6355 8.0798 3.5640 95 0 0
-5.6945 -0.7032 11.1260 82 0 0
-4.6435 -5.1912 3.5690 63 0 0
0.0195 1.7328 11.1360 64 0 0
-0.5685 -0.0152 3.5740 57 0 0
-5.5705 -0.6172 11.1370 78 0 0
-4.5195 -5.4402 3.5880 90 0 0
1.2475 -1.1412 11.1400 77 0 0
-3.6735 -5.9232 3.5960 65 0 0
2.6785 -6.4122 11.1430 64 0 0
-4.5235 -5.2512 3.5970 61 0 0
-1.8715 4.7048 11.1550 95 0 0
-0.7565 0.1938 3.6040 96 0 0
5.6195 -3.2152 11.1570 89 0 0
-4.2755 -5.2622 3.6060 98 0 0
0.2745 -0.4532 11.1610 97 0 0
-4.2905 -5.2542 3.6100 81 0 0
-2.0175 4.7388 11.1630 67 0 0
9.2045 3.4198 3.6220 74 0 0
-2.9105 4.9778 11.1670 121 0 0
-3.7435 -5.8682 3.6270 53 0 0
3.3535 6.3348 11.1740 53 0 0
-4.4955 -5.2632 3.6300 86 0 0
1.5385 6.4028 11.1820 64 0 0
-3.7185 -5.9122 3.6310 82 0 0
1.2495 -4.8962 11.1900 98 0 0
2.0585 0.7808 3.6390 98 0 0
-3.7895 2.4288 11.2010 106 0 0
-0.4915 0.8308 3.6490 108 0 0
-0.9645 4.8858 11.2080 112 0 0
2.4105 0.6958 3.6540 69 0 0
1.5025 6.3148 11.2090 85 0 0
-4.4865 -5.2662 3.6560 56 0 0
1.7505 7.2528 11.2110 57 0 0
-4.3065 -5.4102 3.6610 56 0 0
-2.8415 -1.1512 11.2120 116 0 0
-0.6615 0.1868 3.6890 95 0 0
-5.6525 0.3088 11.2170 74 0 0
7.2735 3.7168 3.6950 100 0 0
6.5875 3.8148 11.2190 85 0 0
-4.4255 -5.4222 3.6970 54 0 0
1.7875 7.3238 11.2250 93 0 0
5.8395 2.1948 3.7030 112 0 0
5.9685 2.0698 11.2260 59 0 0
2.4815 0.6668 3.7080 114 0 0
-0.9565 4.7478 11.2290 61 0 0
-3.5365 -5.6282 3.7130 60 0 0
2.7235 -1.4832 11.2330 79 0 0
-0.7555 7.6578 3.7210 120 0 0
6.8725 2.6918 11.2360 96 0 0
-4.3795 -5.3832 3.7220 71 0 0
-3.0435 2.7868 11.2370 83 0 0
-0.5535 7.7108 3.7270 81 0 0
-2.9725 4.0258 11.2410 68 0 0
-4.2745 -5.2042 3.7290 53 0 0
-2.7545 -1.1122 11.2420 73 0 0
-4.3675 -5.4202 3.7420 81 0 0
-3.4925 3.7948 11.2490 73 0 0
-4.3775 -5.3222 3.7470 76 0 0
-3.9515 5.1098 11.2500 54 0 0
5.1665 3.6718 3.7480 64 0 0
4.0035 4.7048 11.2550 88 0 0
-4.2735 -5.1972 3.7490 62 0 0
0.1005 -0.3182 11.2580 86 0 0
-3.8525 -5.6642 3.7520 60 0 0
-1.4435 5.9628 11.2600 66 0 0
-4.2075 -5.1292 3.7580 94 0 0
-5.1875 0.2488 11.2610 73 0 0
-3.8155 -5.6652 3.7830 54 0 0
-1.0465 4.0008 11.2640 81 0 0
6.3495 3.7598 2.5690 109 0 0
-1.5615 2.9578 11.2650 88 0 0
-0.1705 0.1658 2.5710 78 0 0
-0.3395 -0.1342 1.1540 112 0 0
6.5745 3.7638 2.5750 130 0 0
-0.6355 -0.0502 2.5820 138 0 0
0.7595 0.4628 2.5930 135 0 0
7.0125 3.6538 2.6050 103 0 0
6.9205 3.9888 2.6060 98 0 0
3.8175 4.6068 11.2680 55 0 0
-0.0175 0.2718 1.1550 141 0 0
-1.9215 -2.5582 11.2710 112 0 0
-1.8765 -2.5472 11.3020 60 0 0
-2.8535 -1.1952 11.3070 75 0 0
-1.7205 5.4348 11.3160 56 0 0
-1.1035 4.0698 11.3180 86 0 0
-4.1865 -0.5902 11.3200 57 0 0
5.5725 -2.7162 11.3210 108 0 0
-2.9645 2.8708 11.3230 113 0 0
-1.4835 5.5888 11.3300 79 0 0
-2.0855 -0.2142 11.3310 61 0 0
-3.7535 5.0478 11.3410 92 0 0
-2.8205 5.5238 11.3640 53 0 0
-3.8715 0.5708 11.3680 55 0 0
-5.2935 0.7138 11.3690 64 0 0
-3.7525 5.0688 11.3820 63 0 0
2.4135 7.6938 11.3940 66 0 0
3.8135 2.5138 11.4060 85 0 0
1.9815 6.2068 11.4140 68 0 0
-1.8215 2.6828 11.4150 53 0 0
3.7265 2.4258 11.4230 69 0 0
6.5185 1.7978 11.4470 64 0 0
0.4955 -0.2872 1.1570 125 0 0
-1.0685 -1.8192 11.4510 93 0 0
0.2185 -0.3932 1.1580 112 0 0
0.7175 -4.6542 11.4640 64 0 0
0.5755 0.0048 1.1600 110 0 0
4.8845 2.9178 11.4660 104 0 0
0.3775 0.3378 1.1610 114 0 0
-1.8105 6.0218 11.4670 59 0 0
-0.2415 0.3028 1.1630 109 0 0
1.1625 -0.9462 11.4710 78 0 0
-0.3655 -0.1132 1.1640 114 0 0
-4.2025 4.8228 11.4810 58 0 0
0.0815 0.4148 1.1650 109 0 0
-2.9965 2.8978 11.5060 99 0 0
-0.0905 0.1508 1.1660 126 0 0
-3.8145 -0.4822 11.5080 79 0 0
-0.1575 0.1908 1.1670 85 0 0
1.1615 -5.0052 11.5150 116 0 0
1.1295 4.9348 11.5170 63 0 0
2.1405 6.3408 11.5290 76 0 0
-0.2225 -0.3362 1.1680 121 0 0
-0.0615 1.8458 11.5360 103 0 0
-0.0225 0.4118 1.1690 108 0 0
-4.4465 3.9208 11.5370 62 0 0
0.5655 0.2698 1.1700 89 0 0
0.0115 2.6898 11.5400 127 0 0
0.2515 -0.3752 1.1710 116 0 0
2.8515 -6.6952 11.5460 66 0 0
0.4345 -0.3202 1.1720 133 0 0
-4.2505 4.5218 11.5480 60 0 0
0.4905 -0.3072 1.1730 102 0 0
0.0135 3.1098 11.5520 69 0 0
-0.0235 -0.4872 1.1740 79 0 0
0.7995 1.5488 11.5530 58 0 0
-0.1935 0.2558 1.1750 132 0 0
0.2355 0.4458 1.1760 122 0 0
0.0555 -0.4752 1.1770 120 0 0
-0.0145 -0.4342 0.0780 93 0 0
0.3845 0.3388 1.1780 141 0 0
0.4395 0.2088 0.0800 97 0 0
-0.2045 0.2748 1.1800 87 0 0
0.1165 -0.3952 0.0820 59 0 0
0.1965 -0.3982 1.1810 144 0 0
-0.2415 -0.4792 0.0830 102 0 0
-0.2105 -0.3382 1.1820 107 0 0
-0.1225 -0.4262 1.1830 101 0 0
4.1855 3.8328 9.9680 120 0 0
0.4235 -0.3232 1.1840 122 0 0
-6.3735 -1.5532 9.9710 126 0 0
-0.1305 0.1458 1.1850 95 0 0
4.1665 5.4908 9.9860 69 0 0
0.4785 -0.3172 1.1860 148 0 0
3.9945 -3.7422 9.9870 96 0 0
-0.1835 -0.3482 1.1870 127 0 0
3.8755 0.6608 9.9920 92 0 0
0.0675 -0.4822 1.1880 122 0 0
4.1435 2.4748 9.9960 105 0 0
0.1295 -0.4412 1.1890 109 0 0
-5.9635 -1.7452 9.9970 112 0 0
-0.2785 -0.2522 1.1900 129 0 0
6.8875 2.7008 10.0070 96 0 0
0.0955 0.4238 1.1920 94 0 0
5.4255 -3.7472 10.0080 89 0 0
0.0275 0.4388 1.1930 99 0 0
4.6895 -1.9872 10.0090 103 0 0
-0.3015 -0.2392 1.1950 96 0 0
5.6105 0.4668 10.0120 100 0 0
0.3305 0.3578 1.1960 115 0 0
-6.2665 -1.6372 10.0130 70 0 0
-0.2835 0.3118 1.1970 100 0 0
4.3235 4.2548 10.0150 101 0 0
0.1365 0.4768 1.1980 105 0 0
-2.5945 1.0888 10.0180 99 0 0
0.4455 0.3658 1.1990 124 0 0
-1.6715 -1.3012 10.0230 108 0 0
0.3525 -0.2832 1.2000 116 0 0
4.1965 3.9878 10.0300 82 0 0
0.5265 -0.2282 1.2020 126 0 0
4.7015 -1.9902 10.0380 82 0 0
-0.0735 -0.4682 1.2040 96 0 0
4.0015 0.6348 10.0600 92 0 0
-0.0995 0.1508 1.2070 105 0 0
-8.1855 -0.9092 10.0770 116 0 0
0.0975 0.4318 1.2080 88 0 0
4.7815 2.1028 10.0780 107 0 0
0.2385 -0.4032 1.2090 134 0 0
2.9635 6.1528 10.0840 116 0 0
0.0025 -0.5012 1.2100 126 0 0
0.3525 4.9978 10.0870 71 0 0
-0.0195 -0.4962 1.2110 97 0 0
2.5305 1.2928 10.0890 68 0 0
0.5885 0.0128 1.2120 142 0 0
5.1395 3.3668 10.0930 88 0 0
-0.1775 0.2158 1.2130 106 0 0
5.8885 -0.6542 10.0980 76 0 0
0.5315 -0.2202 1.2140 131 0 0
4.0625 3.5988 10.1080 102 0 0
-0.1625 -0.3522 1.2150 135 0 0
-2.3995 -0.8432 10.1180 98 0 0
-0.0945 -0.4532 1.2160 123 0 0
6.4645 1.4638 10.1340 132 0 0
-0.0225 0.2768 1.2180 116 0 0
5.2555 3.4128 10.1360 113 0 0
0.5885 -0.0072 1.2190 92 0 0
1.9575 3.2218 10.1400 90 0 0
-0.2715 0.3028 1.2210 112 0 0
2.8955 5.8358 10.1490 98 0 0
-0.2345 0.2828 1.2220 165 0 0
5.0845 1.9928 10.1500 59 0 0
-0.0395 0.3738 1.2230 92 0 0
-3.9685 -1.4292 10.1560 76 0 0
0.1245 -0.4552 1.2240 108 0 0
-0.2475 -1.2322 10.1580 129 0 0
-0.2125 0.2688 1.2250 79 0 0
-0.0605 1.4858 10.1620 111 0 0
0.5425 -0.2462 1.2260 83 0 0
-0.6135 8.5548 10.1630 57 0 0
0.0755 0.4198 1.2270 98 0 0
0.5565 0.2138 1.2290 129 0 0
5.0535 5.2588 10.1670 79 0 0
-0.0945 0.1568 1.2300 134 0 0
-2.4395 -0.7862 10.1790 109 0 0
0.6185 0.1568 1.2310 107 0 0
1.2025 -3.4192 10.1880 84 0 0
0.6315 0.0898 1.2320 111 0 0
5.5475 3.6578 10.1910 119 0 0
0.0565 0.4298 1.2330 143 0 0
3.7935 -2.8532 10.1920 126 0 0
-0.4115 0.2648 1.2340 119 0 0
6.2645 1.6288 10.1970 120 0 0
0.3775 0.3478 1.2370 124 0 0
4.4095 0.6998 10.2000 119 0 0
0.0965 0.4138 1.2380 125 0 0
4.0835 3.3348 10.2020 129 0 0
-0.0065 0.4398 1.2390 128 0 0
4.8165 0.8548 10.2100 135 0 0
0.2765 -0.4062 1.2410 82 0 0
0.2275 8.5678 10.2210 80 0 0
-0.3115 0.3168 1.2420 123 0 0
1.1745 8.4598 10.2240 89 0 0
-0.1595 0.1708 1.2430 108 0 0
7.1445 -2.1252 10.2330 102 0 0
0.2595 0.3808 1.2470 128 0 0
-4.0615 -1.5902 10.2340 68 0 0
0.3465 -0.2852 1.2480 114 0 0
1.1805 8.1288 10.2390 78 0 0
-0.3555 0.3128 1.2500 107 0 0
0.5195 -0.0882 1.2530 144 0 0
4.7725 0.8558 10.2460 56 0 0
-0.0405 0.3968 1.2540 117 0 0
1.1695 -3.4782 10.2510 77 0 0
-0.0775 -0.4702 1.2550 136 0 0
2.8815 5.7678 10.2560 96 0 0
1.8215 -4.8312 1.2570 54 0 0
5.8715 2.1188 10.2640 92 0 0
0.5805 0.2028 1.2600 130 0 0
4.9315 -2.0762 10.2650 121 0 0
-0.4075 -0.0162 1.2620 74 0 0
-3.0395 1.6788 10.2710 140 0 0
-0.4175 0.0508 1.2630 105 0 0
2.5995 -3.0632 10.2720 61 0 0
-0.0405 0.3538 1.2640 79 0 0
5.9285 2.3268 10.2730 81 0 0
0.4245 -0.3222 1.2650 116 0 0
-1.3285 -3.2372 10.2780 95 0 0
0.5915 -0.0092 1.2660 117 0 0
5.2735 4.2258 10.2830 86 0 0
0.1245 -0.4762 1.2670 133 0 0
7.1315 -2.1192 10.2940 69 0 0
0.6475 0.1158 1.2700 95 0 0
-0.1155 1.5668 10.3030 66 0 0
-0.1065 0.1308 1.2730 115 0 0
-0.6285 8.8178 10.3060 53 0 0
0.3395 -0.3052 1.0360 129 0 0
4.6645 -3.1212 10.3070 67 0 0
-0.2785 -0.2622 1.0370 109 0 0
4.5755 3.5578 10.3210 86 0 0
-0.3295 -0.2302 1.0400 102 0 0
0.3725 6.5618 10.3250 54 0 0
0.4265 -0.3172 1.0410 88 0 0
-0.0155 0.3898 1.0420 109 0 0
-4.7655 -0.5432 10.3270 93 0 0
0.2715 -0.3252 1.0430 130 0 0
0.4415 4.8768 10.3320 95 0 0
-0.1685 -0.3472 1.0440 113 0 0
-2.6815 0.9528 10.3350 95 0 0
0.1605 -0.3862 1.0450 129 0 0
5.6835 4.0118 10.3380 117 0 0
-0.0145 0.2758 1.0460 111 0 0
-4.3975 -0.0902 10.3390 66 0 0
0.1935 -0.3892 1.0470 121 0 0
3.9695 -1.5292 10.3440 105 0 0
0.2295 0.4328 1.0480 108 0 0
0.2215 1.4238 10.3500 111 0 0
0.1365 0.4708 1.0490 131 0 0
5.5135 2.0608 10.3560 117 0 0
-0.1075 -0.4412 1.0510 133 0 0
-4.3805 -0.2732 10.3570 132 0 0
-0.4155 0.0758 1.0520 120 0 0
4.1375 3.1988 10.3610 82 0 0
0.5355 0.1208 1.0530 99 0 0
-4.3885 -0.2622 10.3640 79 0 0
0.0015 -0.4742 1.0540 129 0 0
-3.0045 1.8678 10.3700 78 0 0
-0.2685 -0.2652 1.0550 130 0 0
6.0975 5.3308 10.3730 64 0 0
-0.3915 0.0968 1.0560 113 0 0
-2.4245 6.2138 10.3830 66 0 0
-0.0825 0.2348 1.0570 101 0 0
3.9135 -3.0072 10.3840 107 0 0
-0.3515 -0.1402 1.0580 108 0 0
1.9285 3.3598 10.3850 75 0 0
0.3405 -0.3042 1.0590 114 0 0
-1.1185 -3.5892 10.3900 125 0 0
-0.0935 -0.4482 1.0600 133 0 0
2.7785 1.3878 10.3950 93 0 0
-0.3815 -0.0882 1.0620 102 0 0
7.3575 2.2618 10.4060 62 0 0
0.0915 0.4138 1.0640 101 0 0
1.9305 3.3648 10.4070 104 0 0
0.0715 0.4148 1.0650 97 0 0
5.8875 4.7438 10.4140 106 0 0
-0.0635 0.2638 1.0660 132 0 0
7.5865 -2.2802 10.4210 91 0 0
0.5505 0.1108 1.0670 110 0 0
0.0415 8.2558 10.4270 70 0 0
0.5405 0.1308 1.0680 113 0 0
5.5005 5.2678 10.4340 87 0 0
-0.3105 0.3278 1.0700 109 0 0
-0.3225 0.3148 1.0710 108 0 0
-0.3675 -0.1072 1.0730 102 0 0
-4.1845 -1.6902 10.4380 96 0 0
0.4755 -0.0602 1.0740 141 0 0
5.5815 4.9568 10.4390 66 0 0
0.2725 0.3518 1.0750 148 0 0
3.8805 -2.8942 10.4400 118 0 0
0.0855 -0.4422 1.0760 134 0 0
5.5545 4.9728 10.4480 70 0 0
-0.4175 0.0338 1.0780 90 0 0
-0.0835 -0.4582 1.0790 124 0 0
0.5045 -0.2632 1.0800 54 0 0
-2.8465 3.9098 10.4540 54 0 0
0.1755 0.4748 1.0810 109 0 0
-3.0015 1.9758 10.4620 158 0 0
-0.3775 0.2578 1.0820 106 0 0
2.5505 5.6268 10.4700 124 0 0
0.5445 0.1408 1.0830 111 0 0
-0.3675 9.6248 10.4830 79 0 0
0.4205 -0.3212 1.0840 94 0 0
-5.0525 -0.3442 10.4860 86 0 0
-0.3945 -0.0932 1.0860 68 0 0
0.6745 5.7928 10.4900 93 0 0
0.5335 0.2488 1.0870 107 0 0
0.4025 1.4518 10.4910 77 0 0
0.2965 -0.2792 1.0880 89 0 0
-0.4065 -1.5892 10.4930 54 0 0
0.1305 -0.3982 1.0890 111 0 0
6.5885 0.8038 10.4940 67 0 0
0.2745 0.3538 1.0900 121 0 0
1.2585 -3.6172 10.4950 76 0 0
-0.0765 -0.4692 1.0910 121 0 0
0.7125 6.0228 10.5030 66 0 0
0.1555 0.4778 1.0920 102 0 0
1.3705 7.6418 10.5070 118 0 0
0.0615 0.4148 1.0930 97 0 0
2.3175 4.5208 10.5120 135 0 0
0.3415 -0.2922 1.0940 136 0 0
1.3875 7.6608 10.5150 93 0 0
0.5785 0.0938 1.0950 90 0 0
2.0645 3.5408 10.5170 75 0 0
-0.3845 0.1028 1.0960 117 0 0
-0.3535 9.5518 10.5180 63 0 0
0.2065 0.4678 1.0970 121 0 0
6.8865 4.6368 10.5190 78 0 0
-0.3165 -0.2362 1.0980 96 0 0
-5.0865 -0.3652 10.5240 110 0 0
0.4675 2.7098 10.5310 106 0 0
-4.2525 -1.6992 10.5340 101 0 0
-0.2995 6.1178 10.5350 67 0 0
6.3355 4.3648 10.5380 68 0 0
-0.2625 6.0388 10.5400 61 0 0
-2.4775 6.3218 10.5430 57 0 0
-2.9635 2.0978 10.5440 86 0 0
0.5105 0.3218 1.0990 102 0 0
-2.4055 -0.5152 10.5470 104 0 0
0.5005 -0.0462 1.1000 141 0 0
5.5955 1.3288 10.5520 76 0 0
0.5665 0.0618 1.1010 117 0 0
2.2615 5.5518 10.5560 101 0 0
0.5535 0.0348 1.1020 111 0 0
-4.4675 0.7658 10.5660 93 0 0
-0.4185 -0.0382 1.1040 62 0 0
2.0345 3.7148 10.5670 113 0 0
0.4665 -0.1692 1.1050 155 0 0
6.9355 4.5238 10.5690 54 0 0
0.2365 -0.3742 1.1060 137 0 0
2.3905 4.4408 10.5700 61 0 0
-0.2665 -0.2622 1.1070 145 0 0
-4.9235 -0.3462 10.5870 104 0 0
-0.3365 -0.1842 1.1080 97 0 0
-4.3065 -1.8552 10.5910 76 0 0
-0.0785 0.2318 1.1090 106 0 0
-0.0795 1.5728 10.5920 110 0 0
0.1815 0.4668 0.9650 119 0 0
-2.5375 -0.4612 10.5970 92 0 0
0.2305 0.4098 0.9660 104 0 0
-2.5395 -0.4432 10.6120 85 0 0
0.3035 -0.2962 0.9670 115 0 0
-2.5315 -0.4252 10.6130 77 0 0
-0.6835 2.4208 10.6140 111 0 0
-0.0705 -0.4492 0.3260 103 0 0
0.9155 -1.8472 10.6160 54 0 0
-0.1245 -0.4722 0.3270 123 0 0
0.2315 -1.3812 10.6170 93 0 0
-0.0695 0.4498 0.3310 72 0 0
-0.2935 9.7908 10.6190 91 0 0
-0.1965 -0.4652 0.3350 87 0 0
-3.8985 0.0668 10.6250 144 0 0
-0.5075 0.0228 0.3360 109 0 0
2.1565 5.5758 10.6260 100 0 0
0.3705 -0.0602 0.3370 90 0 0
0.4875 3.6178 10.6310 86 0 0
-0.2945 -0.3982 0.3390 101 0 0
2.8865 1.3748 10.6370 88 0 0
0.3355 -0.1172 0.3400 116 0 0
2.8585 -2.6822 10.6410 53 0 0
-0.0515 0.4408 0.3450 56 0 0
-8.3005 -2.1622 10.6420 53 0 0
0.0945 -0.3662 0.3460 117 0 0
-0.2835 9.0648 10.6450 75 0 0
0.2375 -0.3692 0.3490 99 0 0
-2.6105 6.0948 10.6480 54 0 0
-0.3755 -0.3102 0.3500 56 0 0
-1.0995 -1.5962 10.6500 92 0 0
0.1055 -0.3542 0.3510 108 0 0
6.8085 -0.7732 10.6530 63 0 0
0.2855 -0.3352 0.3540 94 0 0
-2.5345 -0.4092 10.6550 68 0 0
-0.1065 -0.4632 0.3550 93 0 0
-3.0685 2.1188 10.6640 102 0 0
-0.4605 -0.1902 0.3560 58 0 0
5.0455 -0.0422 10.6720 80 0 0
-0.0325 -0.4232 0.3570 121 0 0
-2.3695 2.8238 10.6750 61 0 0
0.4065 -0.0142 0.3610 92 0 0
0.3485 3.9288 10.6760 130 0 0
-0.0575 0.4398 0.3620 55 0 0
0.3835 4.5088 10.6790 123 0 0
-0.4665 -0.1422 0.3730 89 0 0
-2.3225 2.9048 10.6820 98 0 0
0.3795 -0.0512 0.3750 68 0 0
-0.6935 2.4918 10.6900 103 0 0
0.0385 -0.3922 0.3760 89 0 0
2.3365 4.3068 10.6960 57 0 0
-0.1605 -0.4692 0.3910 107 0 0
2.5165 5.6458 10.6970 79 0 0
0.0945 -0.3612 0.3920 69 0 0
0.9165 -0.5752 10.6990 82 0 0
-0.2135 -0.4462 0.3940 118 0 0
-3.8175 -0.1482 10.7000 95 0 0
0.2045 0.4678 0.3980 63 0 0
-0.3985 9.3148 10.7040 82 0 0
0.1335 -0.2642 0.4020 86 0 0
-2.5795 2.6038 10.7050 78 0 0
-0.0045 -0.3942 0.4040 98 0 0
3.5205 0.0088 10.7080 116 0 0
-0.1945 -0.4592 0.4070 90 0 0
5.5285 2.9098 10.7110 60 0 0
0.1305 -0.3392 0.4100 126 0 0
-0.9235 -1.6252 10.7130 86 0 0
-0.3575 -0.3132 0.4120 121 0 0
-0.7115 -1.5512 10.7170 64 0 0
0.1825 -0.3152 0.4140 96 0 0
3.1525 1.3228 10.7180 111 0 0
-0.5035 0.0308 0.4150 85 0 0
4.3835 2.5248 10.7240 108 0 0
-0.2125 -0.4452 0.4160 131 0 0
3.0635 1.3788 10.7250 120 0 0
0.3515 -0.0962 0.4170 77 0 0
-2.4915 5.6748 10.7270 94 0 0
-0.1475 -0.4712 0.4180 132 0 0
4.1415 -1.0662 10.7300 62 0 0
-0.3035 -0.3252 0.4190 111 0 0
5.9755 5.0568 10.7310 65 0 0
-0.3395 -0.3152 0.4200 109 0 0
0.6045 5.6978 10.7320 77 0 0
0.2655 -0.3322 0.4220 79 0 0
4.3265 2.4468 10.7340 71 0 0
-0.0255 -0.4292 0.4240 53 0 0
2.1095 5.5408 10.7390 108 0 0
0.1715 -0.3022 0.4290 64 0 0
5.1625 2.5798 10.7530 107 0 0
-0.2905 -0.3262 0.4310 104 0 0
-4.2765 -1.5592 10.7540 93 0 0
0.1235 0.4578 0.4340 80 0 0
4.7915 -0.1642 10.7550 116 0 0
0.1955 -0.3182 0.4360 122 0 0
4.5835 -2.4372 10.7580 65 0 0
0.0285 -0.3882 0.4380 108 0 0
4.8895 -3.1002 10.7590 88 0 0
0.7025 1.4008 10.7620 122 0 0
-2.4115 -0.2502 10.7650 134 0 0
4.4325 2.5288 10.7710 87 0 0
0.2695 4.0538 10.7720 89 0 0
-0.8075 2.6498 10.7730 95 0 0
1.9755 3.9768 10.7750 115 0 0
4.3055 2.6478 10.7760 81 0 0
0.7405 5.0698 10.7790 96 0 0
1.9965 4.8468 10.7810 115 0 0
-3.8315 1.1598 10.7820 60 0 0
3.7115 -0.2292 10.7830 111 0 0
3.8325 -2.8322 10.7870 76 0 0
4.1225 -2.1952 10.7880 61 0 0
1.9515 5.0308 10.7960 70 0 0
-0.0155 -0.4092 0.4390 97 0 0
2.4895 7.4468 10.7980 82 0 0
4.3415 2.6348 10.8020 110 0 0
0.3235 4.8418 10.8050 75 0 0
-0.0575 -0.4502 0.4400 99 0 0
1.9355 4.1078 10.8350 74 0 0
-0.0325 0.4768 0.4410 56 0 0
4.4195 2.9298 10.8360 81 0 0
-0.2445 -0.4262 0.4420 100 0 0
5.5665 1.0928 10.8470 107 0 0
-0.2155 -0.4432 0.4450 118 0 0
1.9835 4.5168 10.8510 116 0 0
0.1715 -0.2972 0.4480 121 0 0
-4.3845 -1.6182 10.8550 78 0 0
0.0625 -0.3862 0.4490 81 0 0
-0.8735 2.6898 10.8570 115 0 0
-0.0035 -0.4062 0.4500 88 0 0
7.2155 1.1688 6.7710 95 0 0
4.2485 2.2758 10.8600 81 0 0
3.1195 3.8398 6.7740 57 0 0
-0.7645 4.0648 10.8630 131 0 0
1.4925 1.8648 6.7810 59 0 0
2.0515 5.0278 10.8670 85 0 0
-1.5225 -0.5972 6.7850 91 0 0
1.8335 4.3888 10.8680 119 0 0
-3.1265 -0.9142 6.7900 106 0 0
-2.6255 6.6458 10.8690 55 0 0
2.1635 -3.7602 6.7990 66 0 0
6.8075 -1.1042 10.8700 68 0 0
7.5445 -1.4442 6.8000 150 0 0
4.9535 -0.1042 10.8770 78 0 0
2.1335 -0.6032 6.8010 127 0 0
-1.8855 6.3298 10.8800 60 0 0
5.4805 -5.1812 6.8050 133 0 0
-0.3255 9.6358 10.8820 53 0 0
5.5285 -0.3852 6.8220 85 0 0
-0.4425 -1.5822 10.8950 139 0 0
5.4995 -5.1782 6.8270 107 0 0
-0.3965 -1.5432 10.9020 106 0 0
7.1005 0.4308 6.8340 86 0 0
-2.9825 3.0518 10.9030 90 0 0
4.7575 -5.3202 6.8480 136 0 0
2.7425 8.1258 10.9040 122 0 0
-1.5355 -0.5602 6.8490 112 0 0
2.0585 4.6678 10.9080 72 0 0
-0.6635 -0.6612 6.8500 72 0 0
5.0305 -0.1102 10.9090 118 0 0
-2.2315 2.0308 6.8570 78 0 0
-2.3675 -0.3542 10.9100 83 0 0
2.6995 3.9788 6.8650 61 0 0
-2.7495 7.2348 10.9110 59 0 0
4.2065 -5.1132 6.8750 84 0 0
2.8635 7.8238 10.9260 81 0 0
4.9205 -5.2392 6.8760 59 0 0
2.3015 6.3458 9.6370 105 0 0
-2.9675 3.2748 10.9280 56 0 0
1.6495 -2.5202 6.8830 115 0 0
2.3085 6.3618 9.6400 91 0 0
6.7845 -2.6272 6.8910 88 0 0
0.4365 1.5678 9.6490 114 0 0
3.8955 3.5858 6.9050 114 0 0
3.9535 1.8338 9.6520 111 0 0
-2.0425 3.2768 6.9110 80 0 0
-0.0185 -1.1712 9.6560 133 0 0
4.2235 1.0178 6.9160 61 0 0
-2.4595 0.4298 9.6600 121 0 0
2.4175 -0.5592 6.9250 54 0 0
4.6975 5.4288 9.6670 87 0 0
4.6805 -6.4102 6.9260 63 0 0
-3.5045 -0.9532 9.6690 90 0 0
5.1155 -2.6232 6.9350 108 0 0
-3.3795 -0.9552 9.6700 97 0 0
1.4425 0.3628 6.9400 96 0 0
3.9405 1.9348 9.6720 106 0 0
7.4565 2.1018 6.9410 68 0 0
5.4795 -4.1552 9.6730 76 0 0
1.8675 -2.9532 6.9420 57 0 0
2.5855 5.3378 9.6760 105 0 0
1.6845 -2.5112 6.9430 119 0 0
-1.9875 -1.0762 9.6790 143 0 0
-2.1625 3.2998 6.9440 85 0 0
5.0165 5.5238 9.6810 67 0 0
2.1885 -4.0202 6.9450 102 0 0
2.7445 -3.0532 9.6830 124 0 0
2.1935 -4.1072 6.9480 117 0 0
3.9855 1.9638 9.6840 139 0 0
6.3625 -6.0742 6.9500 65 0 0
-2.6255 3.0488 9.6870 70 0 0
1.2445 -3.8382 6.9660 60 0 0
3.0645 5.7038 9.6910 138 0 0
-2.2485 2.0348 6.9730 75 0 0
-1.3575 0.3078 9.6970 117 0 0
5.7455 -6.3252 6.9740 82 0 0
3.6225 5.5398 9.6980 69 0 0
0.9285 7.2478 6.9770 60 0 0
-2.4635 0.4468 9.6990 78 0 0
4.5725 -2.6462 6.9800 79 0 0
2.1425 4.2898 9.7050 110 0 0
-1.9235 -0.6112 6.9870 112 0 0
-1.8845 -1.2902 9.7060 97 0 0
3.1875 -4.9102 6.9940 118 0 0
-3.6905 -1.1842 9.7080 79 0 0
1.0795 -0.6332 6.9980 88 0 0
-2.5045 0.5028 9.7130 77 0 0
2.5305 -0.7052 7.0100 111 0 0
-5.6615 -1.8712 9.7140 88 0 0
5.1625 -2.7022 7.0110 125 0 0
5.5735 4.1648 9.7240 53 0 0
2.5725 -0.6602 7.0120 96 0 0
0.6995 7.4038 9.7310 78 0 0
-1.9125 -0.8002 7.0150 149 0 0
7.6755 -0.6512 9.7350 80 0 0
7.1245 -1.2142 7.0240 126 0 0
2.1565 4.4618 9.7370 72 0 0
1.8335 -3.9842 7.0320 86 0 0
2.4595 -1.8362 9.7380 71 0 0
-1.9855 -0.7142 7.0350 123 0 0
0.1805 1.7478 9.7390 57 0 0
6.3425 -0.2492 7.0370 116 0 0
-3.9435 -0.8402 9.7440 143 0 0
-1.8955 -0.5522 7.0390 88 0 0
-3.0815 3.7108 9.7460 79 0 0
6.0665 -2.6652 7.0420 120 0 0
7.9725 1.0958 9.7490 53 0 0
2.7525 -4.7232 7.0530 179 0 0
-0.1105 6.0168 9.7530 82 0 0
1.7795 -2.4532 7.0550 126 0 0
-4.0145 -0.8752 9.7570 135 0 0
1.7835 -2.5612 7.0570 102 0 0
-3.6895 -1.2982 9.7590 62 0 0
1.5335 -2.4072 7.0580 86 0 0
-2.1095 -1.0002 9.7630 89 0 0
2.7885 -0.7632 7.0590 117 0 0
-5.6775 -1.8132 9.7660 83 0 0
1.7795 0.5518 7.0600 84 0 0
2.6845 -1.4442 9.7720 59 0 0
5.9185 -4.0942 7.0630 54 0 0
4.1525 -2.4582 9.7780 105 0 0
2.9165 -4.7262 7.0710 107 0 0
2.1075 6.2928 9.7800 62 0 0
1.8415 -4.1332 7.0770 93 0 0
6.9185 -1.2342 9.7880 82 0 0
1.7455 0.4718 7.0790 104 0 0
0.4195 1.6608 9.7920 64 0 0
2.6595 -0.6352 7.0810 105 0 0
7.6835 0.7778 9.7960 101 0 0
2.4785 -4.5682 7.0820 113 0 0
1.2215 -4.7822 9.8000 64 0 0
6.6355 -2.7082 7.0860 126 0 0
-1.6805 2.2668 9.8010 65 0 0
7.1775 0.6328 7.0880 124 0 0
-2.5605 0.7008 9.8020 102 0 0
2.3795 -0.5802 7.0900 90 0 0
5.8885 0.7928 9.8040 106 0 0
-1.7875 -0.4972 7.0920 104 0 0
-0.4465 8.3938 9.8050 53 0 0
-1.8205 -0.8462 7.1070 91 0 0
-3.8125 -1.1912 9.8060 95 0 0
3.0705 -0.8522 7.1200 80 0 0
-1.2315 7.5858 9.8110 73 0 0
7.2035 -3.2472 7.1250 116 0 0
4.5875 3.4448 9.8130 74 0 0
1.7795 0.6918 7.1280 86 0 0
-2.5705 0.6878 9.8140 115 0 0
1.6775 0.6958 7.1310 98 0 0
-0.3225 8.3768 9.8190 55 0 0
4.7875 -5.0292 7.1350 84 0 0
-0.4005 6.1728 9.8220 84 0 0
6.2575 -2.6852 7.1400 67 0 0
3.7945 0.6278 9.8230 59 0 0
-3.2185 -3.5152 7.1460 78 0 0
4.7325 -1.5702 9.8250 112 0 0
2.2795 3.6028 9.8320 104 0 0
2.2845 3.4448 9.8330 108 0 0
-4.1325 -6.0242 4.4420 78 0 0
1.4145 8.1748 9.8370 85 0 0
4.8195 1.5798 4.4450 67 0 0
5.6065 0.6648 9.8400 114 0 0
-1.2585 -0.3442 4.4560 117 0 0
3.4615 -3.2882 9.8410 94 0 0
4.3635 1.5778 4.4680 109 0 0
-7.9495 -1.7442 9.8430 56 0 0
5.0485 -6.2932 4.4710 90 0 0
5.5155 0.6108 9.8460 140 0 0
7.1345 6.4558 4.4840 82 0 0
0.1495 1.5598 9.8470 124 0 0
7.6885 0.4988 4.4920 62 0 0
2.0545 2.8478 9.8490 116 0 0
3.8155 3.4208 4.5000 55 0 0
2.2895 3.7978 9.8550 135 0 0
4.1455 4.9718 4.5010 73 0 0
-4.1115 -0.8502 9.8560 125 0 0
-0.3475 3.5238 4.5130 100 0 0
-4.1335 -0.7942 9.8570 145 0 0
-0.8695 0.0348 4.5140 59 0 0
-5.7775 -1.8172 9.8630 121 0 0
-3.4475 -5.1372 4.5230 103 0 0
3.8405 2.2628 9.8680 127 0 0
0.6835 0.1948 4.5330 95 0 0
2.2845 3.3238 9.8690 99 0 0
-0.3745 3.5918 4.5530 99 0 0
7.6555 0.7648 9.8720 64 0 0
0.7515 -0.0802 4.5560 147 0 0
2.1435 2.9918 9.8800 113 0 0
-0.4505 3.9168 4.5580 126 0 0
2.2845 3.3418 9.8850 78 0 0
6.6935 -3.8792 4.5620 58 0 0
1.6745 8.3068 9.8930 113 0 0
-3.4015 -5.1212 4.5750 83 0 0
4.0155 2.3368 9.8990 126 0 0
1.8095 -0.1492 4.5850 112 0 0
-0.0545 -1.1012 9.9000 78 0 0
-4.0285 -5.2542 4.5920 108 0 0
3.8005 0.6718 9.9080 81 0 0
6.6695 -3.6832 4.5970 114 0 0
6.7465 -1.7022 9.9100 71 0 0
1.0575 0.1278 4.5980 117 0 0
-2.5355 0.7858 9.9120 63 0 0
-3.3545 -5.1162 4.6080 90 0 0
-1.7465 -1.4212 9.9170 144 0 0
3.4145 -6.2392 4.6140 66 0 0
-1.2365 6.8408 9.9190 59 0 0
-3.3525 -5.0962 4.6180 57 0 0
4.3065 2.5108 9.9230 99 0 0
-1.3575 -0.3582 4.6230 114 0 0
3.9775 -3.8392 9.9290 111 0 0
4.6485 5.8038 4.6370 96 0 0
4.2645 -4.3882 9.9330 85 0 0
-0.5335 4.1268 4.6390 118 0 0
4.3345 1.9328 9.9400 62 0 0
-3.9325 -5.2432 4.6450 102 0 0
3.9495 -3.7192 9.9420 120 0 0
3.2215 7.0098 4.6510 76 0 0
-0.3965 2.1828 9.9440 85 0 0
1.9245 -0.0432 4.6640 113 0 0
0.2205 1.5448 9.9450 59 0 0
0.3885 6.7948 4.6780 134 0 0
-1.6965 -1.2872 9.9470 75 0 0
4.9575 3.8908 4.6790 73 0 0
6.5875 0.3038 9.9500 94 0 0
-1.0875 1.0738 4.6820 81 0 0
-7.7185 -1.0532 9.9560 59 0 0
5.7075 -4.1272 4.6860 86 0 0
2.0825 8.4868 9.9590 73 0 0
5.1075 2.0118 4.6920 93 0 0
-0.4785 2.2028 9.9600 89 0 0
1.0955 0.0888 4.7010 128 0 0
-2.7655 0.9648 9.9650 89 0 0
7.8525 -1.4692 4.7070 123 0 0
-2.3785 -0.7222 8.4940 87 0 0
2.1935 6.0748 4.7090 65 0 0
3.2105 -1.5342 8.4970 84 0 0
-3.8605 -5.2772 4.7130 56 0 0
3.1385 6.2168 8.5030 91 0 0
0.2055 1.6668 4.7310 87 0 0
0.0415 7.3388 8.5050 97 0 0
5.4535 4.2328 4.7320 56 0 0
4.0405 -3.7102 8.5110 96 0 0
-4.5285 -5.1122 4.7330 97 0 0
3.0685 6.2568 8.5170 115 0 0
3.6905 3.4238 4.7540 77 0 0
-1.5235 4.9888 8.5200 124 0 0
4.5235 5.3068 4.7590 78 0 0
3.0325 -4.8202 8.5230 136 0 0
-3.3525 -4.9562 4.7610 118 0 0
3.9685 -3.6712 8.5310 93 0 0
5.0915 6.2738 4.7720 114 0 0
-2.6445 2.0528 8.5370 54 0 0
0.7475 -0.0832 4.7870 86 0 0
5.7205 -1.8822 8.5420 75 0 0
-3.6115 -5.2302 4.7920 60 0 0
-2.2715 -0.9442 8.5440 85 0 0
8.4815 -1.9252 4.8010 74 0 0
3.0515 -4.9862 8.5490 121 0 0
-1.4095 -0.3952 4.8050 131 0 0
4.3615 -1.5462 8.5660 144 0 0
0.9245 -0.1712 4.8080 139 0 0
