28.5193 3.6391 12.7670 21 0 0
15.5055 1.9727 1.9080 16 0 0
28.6543 6.4328 12.7680 1 0 0
15.2834 2.0289 1.9090 23 0 0
22.3176 -1.6535 12.7690 34 0 0
15.7003 1.7332 1.9100 8 0 0
22.0537 6.3189 12.7710 58 0 0
15.3960 1.9370 1.9110 25 0 0
26.5814 7.1038 12.7720 1 0 0
15.4723 2.0925 1.9120 22 0 0
28.5691 5.0125 12.7740 56 0 0
15.3903 1.9538 1.9130 23 0 0
15.6987 8.0274 12.7750 23 0 0
15.4687 2.1842 1.9140 29 0 0
23.1052 3.5563 12.7770 55 0 0
20.6076 2.1766 1.9150 42 0 0
19.7319 10.7881 12.7780 9 0 0
15.2813 2.0873 1.9160 41 0 0
19.4239 10.5326 12.7790 35 0 0
15.4422 2.1300 1.9170 34 0 0
21.6906 6.5141 12.7800 5 0 0
15.6879 1.8947 1.9180 19 0 0
22.8013 -0.3692 12.7810 26 0 0
15.6487 1.7665 1.9190 23 0 0
15.9418 7.8306 12.7820 40 0 0
15.5837 2.1185 1.9200 32 0 0
28.6095 6.2812 12.7850 35 0 0
20.3862 0.8192 1.9210 40 0 0
27.2904 6.0203 12.7860 41 0 0
20.7952 1.2489 1.9220 32 0 0
23.3733 9.7840 12.7870 11 0 0
15.4076 2.2292 1.9230 10 0 0
28.5319 3.5953 12.7880 31 0 0
15.8165 1.8826 1.9240 32 0 0
20.0199 10.7149 12.7890 25 0 0
15.5769 2.0917 1.9260 26 0 0
28.5901 6.2810 12.7900 0 0 0
30.9715 1.0947 1.9270 15 0 0
17.4515 5.7505 12.7910 25 0 0
15.4635 2.1916 1.9280 18 0 0
19.7776 10.8828 12.7920 10 0 0
20.6615 2.2061 1.9290 31 0 0
26.7140 7.0946 12.7930 4 0 0
15.5549 1.9305 1.9300 26 0 0
22.8355 -0.3744 12.7940 34 0 0
15.5209 2.1329 1.9310 27 0 0
26.6290 5.2373 12.7950 24 0 0
15.8227 1.9898 1.9320 30 0 0
27.1377 6.1464 12.7960 5 0 0
15.5217 1.9792 1.9330 12 0 0
19.1664 9.6786 12.7970 35 0 0
15.4118 1.9910 1.9340 20 0 0
20.8488 6.3174 12.7980 31 0 0
15.8693 1.9273 1.9350 37 0 0
26.7696 7.0886 12.7990 6 0 0
15.3923 1.9735 1.9370 23 0 0
19.1327 10.8166 12.8010 25 0 0
31.0052 1.0315 1.9380 40 0 0
19.3466 10.4548 12.8030 37 0 0
20.7702 1.7124 1.9390 13 0 0
21.1996 6.8296 12.8040 26 0 0
15.5192 1.9983 1.9400 19 0 0
28.8483 6.3801 12.8050 14 0 0
15.7105 1.7882 1.9430 10 0 0
19.2515 10.5479 12.8060 34 0 0
15.4367 2.0441 1.9440 28 0 0
19.4948 10.7823 12.8080 40 0 0
15.3739 2.0463 1.9450 34 0 0
19.1175 9.6698 12.8090 28 0 0
15.9254 8.0566 12.8100 35 0 0
15.0240 5.0325 4.5800 21 0 0
20.2460 7.2298 12.8110 25 0 0
15.5844 5.3206 4.5820 43 0 0
23.0875 2.3612 12.8120 15 0 0
15.5315 5.2881 4.5830 31 0 0
25.7144 7.8442 12.8130 9 0 0
15.4926 5.3622 4.5840 25 0 0
20.3923 10.3143 12.8140 23 0 0
19.1488 -2.2892 4.5850 7 0 0
16.0734 6.5107 12.8150 2 0 0
29.5070 7.7060 4.5860 15 0 0
19.5579 10.8195 12.8160 30 0 0
30.0837 5.6415 4.5870 35 0 0
20.8257 6.3121 12.8180 17 0 0
30.4220 5.4312 4.5890 29 0 0
24.8805 7.0471 12.8200 4 0 0
27.9137 3.1012 4.5900 40 0 0
15.8063 8.1230 12.8210 13 0 0
29.6831 6.2450 4.5920 16 0 0
19.6103 10.5235 12.8220 44 0 0
15.0372 4.9549 4.5930 25 0 0
25.6782 7.6718 12.8230 2 0 0
21.9219 5.5609 4.5940 28 0 0
15.8427 7.8133 12.8240 33 0 0
15.5816 5.4165 4.5950 29 0 0
20.3654 10.2414 12.8250 46 0 0
29.6915 8.8366 4.5960 36 0 0
19.1237 10.5434 12.8270 31 0 0
28.3457 3.1847 4.5970 27 0 0
19.2883 10.4074 12.8280 33 0 0
30.2776 6.0429 4.5980 24 0 0
23.9296 4.9198 12.8300 53 0 0
15.6063 5.3936 4.5990 34 0 0
28.7463 6.4586 12.8320 46 0 0
24.2404 4.4451 4.6010 21 0 0
26.6958 6.9679 12.8330 24 0 0
32.3332 3.3996 4.6040 2 0 0
25.7518 8.1119 12.8340 35 0 0
15.0377 4.9454 4.6050 21 0 0
20.5016 10.3328 12.8350 38 0 0
23.5652 5.6627 4.6060 29 0 0
27.1252 4.3060 12.8360 31 0 0
24.1423 4.6134 4.6070 30 0 0
19.9469 10.2740 12.8370 35 0 0
15.1328 5.5146 4.6080 21 0 0
23.7499 7.5071 12.8380 15 0 0
15.3148 5.2881 4.6090 38 0 0
19.2755 10.6249 12.8400 3 0 0
25.1650 -2.4227 4.6100 18 0 0
16.1050 8.2704 12.8410 20 0 0
15.3087 5.3071 4.6120 46 0 0
27.3600 4.4069 12.8420 13 0 0
27.5401 3.8069 4.6130 31 0 0
19.4749 10.7914 12.8440 50 0 0
32.0443 2.5001 4.6150 30 0 0
29.1786 5.0145 12.8450 2 0 0
23.3350 -3.3296 4.6160 18 0 0
15.9600 8.2035 12.8460 27 0 0
30.2483 9.3327 4.6170 11 0 0
24.4053 -0.8253 12.8470 56 0 0
16.0995 4.2863 4.6180 57 0 0
15.1543 5.5690 4.6190 11 0 0
15.2262 5.5695 4.6200 24 0 0
22.4858 6.8529 10.4870 2 0 0
29.6834 5.2498 4.6210 4 0 0
22.2666 6.4716 10.4890 11 0 0
15.1286 5.0525 4.6220 14 0 0
26.0331 -1.8854 10.4900 30 0 0
28.6130 1.5150 4.6230 11 0 0
22.2149 6.2502 10.4910 3 0 0
27.3205 -1.8845 4.6250 5 0 0
22.2069 10.0020 10.4920 52 0 0
15.1772 5.5643 4.6260 33 0 0
28.9551 10.0819 10.4930 1 0 0
15.3419 5.2619 4.6270 20 0 0
28.5486 3.6965 10.4940 35 0 0
20.1549 -3.5888 4.6280 32 0 0
30.1386 7.9159 10.4960 3 0 0
23.1470 -3.3425 4.6290 52 0 0
20.6854 4.1170 10.4970 27 0 0
27.3607 -1.9969 4.6300 20 0 0
27.6477 7.1836 10.4980 20 0 0
18.6776 -1.5544 4.6310 27 0 0
29.4183 3.1221 10.5000 1 0 0
28.0222 2.0515 4.6320 40 0 0
20.6623 4.4496 10.5010 1 0 0
15.2031 5.5520 4.6340 21 0 0
27.7792 7.5434 10.5030 3 0 0
29.5519 7.5713 4.6350 34 0 0
19.6110 8.3802 10.5040 38 0 0
15.0579 4.9793 4.6360 16 0 0
28.0780 -0.3431 10.5050 7 0 0
27.3235 1.7477 4.6370 18 0 0
24.9438 2.9414 10.5060 35 0 0
30.4780 5.4854 4.6380 23 0 0
21.0235 5.9193 10.5080 20 0 0
19.6173 -3.9820 4.6390 26 0 0
22.6211 -0.2944 10.5090 19 0 0
20.1019 -2.9504 4.6400 20 0 0
27.7613 7.5687 10.5110 24 0 0
29.4956 7.4776 4.6420 1 0 0
18.3045 3.2984 10.5120 31 0 0
15.4859 5.4028 4.6430 6 0 0
29.6565 1.2787 10.5130 24 0 0
15.1722 5.5020 4.6440 34 0 0
28.7961 5.9061 10.5140 29 0 0
26.9882 -2.6101 4.6450 19 0 0
29.5582 10.0549 10.5150 0 0 0
15.3908 5.2793 4.6460 49 0 0
29.4762 3.0332 10.5160 15 0 0
30.9731 4.5019 4.6470 43 0 0
25.0078 0.9702 10.5170 49 0 0
27.9346 3.5224 4.6480 43 0 0
20.8779 4.4354 10.5180 14 0 0
29.3252 6.1121 4.6490 28 0 0
18.7849 0.3199 10.5190 33 0 0
15.3517 5.2774 4.6500 24 0 0
21.9881 8.1053 10.5200 51 0 0
30.3585 9.4106 4.6530 41 0 0
22.7411 10.1418 10.5210 40 0 0
21.6305 5.1519 4.6540 57 0 0
22.4986 9.8126 10.5220 43 0 0
15.3157 5.3353 4.6550 24 0 0
20.6231 3.9383 10.5230 31 0 0
31.2844 5.0474 4.6570 35 0 0
28.4936 3.6895 10.5240 28 0 0
24.3717 4.6076 4.6580 9 0 0
27.6597 7.3365 10.5260 40 0 0
15.2376 5.4980 4.6590 37 0 0
22.2027 9.9525 10.5270 46 0 0
15.3281 5.4530 4.6600 15 0 0
30.0007 8.1527 10.5280 18 0 0
19.8566 -3.9170 4.6610 2 0 0
27.5933 -0.7038 10.5290 26 0 0
29.4038 7.1777 4.6620 41 0 0
25.8754 -2.0262 10.5310 21 0 0
15.5787 5.3496 4.6630 33 0 0
28.8336 9.9055 10.5320 16 0 0
15.2619 5.1307 4.6640 5 0 0
18.7090 2.7430 10.5330 30 0 0
19.8581 -4.0213 4.6660 2 0 0
19.7656 8.3780 10.5350 29 0 0
15.3747 5.3610 4.6680 3 0 0
22.0667 9.8797 10.5360 15 0 0
23.9213 4.2087 4.6690 25 0 0
29.1969 8.1934 10.5370 24 0 0
27.9220 2.9577 4.6700 18 0 0
20.5410 3.8950 10.5380 37 0 0
23.4800 5.6759 4.6720 18 0 0
29.3597 9.7604 10.5400 7 0 0
15.6186 4.6395 4.6730 5 0 0
27.4443 -0.7148 10.5410 34 0 0
28.1246 3.5011 4.6750 49 0 0
27.2885 7.6523 10.5420 21 0 0
15.2714 5.4484 4.6760 26 0 0
21.1890 2.8199 10.5430 43 0 0
22.1030 -2.8715 4.6770 37 0 0
20.6339 4.3476 10.5440 39 0 0
23.5456 5.8655 4.6780 36 0 0
22.4068 6.3356 10.5450 11 0 0
31.4395 4.8019 4.6800 24 0 0
26.9776 8.3974 10.5460 36 0 0
15.5130 5.4599 4.6810 23 0 0
26.9086 4.5901 10.5470 16 0 0
19.7843 -3.9914 4.6820 38 0 0
22.4143 6.6543 10.5480 13 0 0
23.9993 4.5282 4.6830 27 0 0
28.6917 10.3231 10.5490 14 0 0
19.2677 -3.9915 4.6840 6 0 0
27.4042 -0.7100 10.5510 33 0 0
29.4988 8.2340 4.6850 2 0 0
18.8466 0.4283 10.5520 31 0 0
31.4748 4.8905 4.6860 11 0 0
22.1790 6.1796 10.5530 44 0 0
15.4616 5.4408 4.6870 7 0 0
27.2456 8.1239 10.5560 42 0 0
15.3605 5.3326 4.6880 12 0 0
22.2155 9.9395 10.5570 44 0 0
28.1059 8.5247 4.6890 43 0 0
26.8590 4.6603 10.5590 36 0 0
30.0021 5.2839 4.6900 18 0 0
22.5947 9.9747 10.5600 22 0 0
15.3921 5.3121 4.6910 48 0 0
21.0713 7.1602 10.5610 20 0 0
27.1686 -1.8914 4.6920 35 0 0
22.3528 -0.4362 10.5640 18 0 0
15.3913 5.3947 4.6930 35 0 0
27.7069 -0.6064 10.5660 29 0 0
15.1549 5.3845 4.6940 23 0 0
27.0066 8.2281 10.5670 40 0 0
30.4725 3.9401 4.6960 5 0 0
27.7172 7.5290 10.5680 22 0 0
29.9498 5.5849 4.6970 29 0 0
27.7795 7.3697 10.5690 1 0 0
29.3317 8.1258 4.6980 11 0 0
27.4978 -0.5913 10.5710 16 0 0
29.9151 6.0917 4.6990 29 0 0
29.4990 1.5727 10.5740 15 0 0
23.0564 -2.7722 4.7000 14 0 0
28.8980 1.9122 10.5760 39 0 0
30.2618 2.2364 4.7010 19 0 0
22.1055 9.8092 10.5770 22 0 0
28.3000 3.4989 4.7040 15 0 0
30.0728 10.4772 10.5780 11 0 0
15.3281 5.4322 4.7050 17 0 0
27.0779 7.4374 10.5790 26 0 0
15.1165 5.3574 4.7060 38 0 0
28.8777 3.4576 10.5810 33 0 0
30.9460 1.9508 4.7070 23 0 0
27.8084 -0.6045 10.5840 24 0 0
29.2262 7.6840 4.7080 37 0 0
22.3603 6.4117 10.5850 17 0 0
24.2068 4.9381 4.7090 22 0 0
28.7512 0.6295 10.5870 32 0 0
15.3949 5.3740 4.7100 31 0 0
27.1033 7.4517 10.5890 17 0 0
13.6427 4.1853 4.7110 28 0 0
29.0083 10.0534 10.5900 5 0 0
25.7742 -2.7686 4.7120 38 0 0
27.3948 -0.7938 10.5910 11 0 0
21.9969 5.5552 4.7130 22 0 0
21.2964 2.8394 10.5920 40 0 0
28.0365 1.8424 4.7140 36 0 0
27.3794 7.9344 10.5930 3 0 0
13.6629 4.1862 4.7150 32 0 0
29.0919 3.2220 10.5940 4 0 0
22.1415 -2.7978 4.7170 35 0 0
18.6159 0.1466 10.5970 41 0 0
23.3043 -2.6657 4.7190 37 0 0
30.3754 2.2628 10.5980 17 0 0
13.8819 3.9160 4.7200 3 0 0
27.9335 5.9054 10.6000 40 0 0
31.9885 3.2724 4.7210 22 0 0
22.2690 9.8916 10.6020 45 0 0
30.0149 2.1318 4.7220 27 0 0
30.1252 2.2097 10.6030 4 0 0
29.3255 8.5193 4.7230 34 0 0
22.4677 9.8789 10.6040 42 0 0
15.2082 5.0438 4.7240 30 0 0
28.8183 3.8173 10.6050 7 0 0
15.1550 5.3479 4.7250 34 0 0
27.3074 -0.6180 10.6060 34 0 0
20.3000 -3.0125 4.7260 35 0 0
30.5109 1.8578 10.6070 14 0 0
23.7076 5.7558 4.7270 34 0 0
21.2618 3.1432 10.6090 40 0 0
22.3492 4.8796 4.7290 50 0 0
27.2963 8.1560 10.6100 42 0 0
13.8991 3.9575 4.7300 17 0 0
27.1115 8.2998 10.6120 34 0 0
29.4076 6.6368 4.7310 0 0 0
21.3325 7.3520 10.6130 37 0 0
27.9307 8.4487 4.7320 40 0 0
28.4118 0.0041 10.6140 10 0 0
31.5587 1.8963 4.7330 14 0 0
29.6994 1.5784 10.6150 26 0 0
13.7373 4.2559 4.7340 13 0 0
30.1647 2.2058 10.6180 9 0 0
13.9531 3.9504 4.7350 44 0 0
21.3982 2.7265 10.6190 16 0 0
19.9331 -1.4842 4.7360 29 0 0
28.2753 -0.1217 10.6210 28 0 0
19.9215 -3.6484 4.7370 42 0 0
21.2440 2.8477 10.6220 40 0 0
13.9005 3.9365 4.7380 22 0 0
28.5775 3.6018 10.6250 37 0 0
13.9315 3.9670 4.7390 37 0 0
28.7990 2.8584 10.6270 10 0 0
23.2406 -2.8111 4.7400 7 0 0
29.7251 2.9200 10.6280 30 0 0
15.3369 5.1458 4.7410 47 0 0
25.4093 -2.5795 10.6300 8 0 0
23.5337 5.7090 4.7420 17 0 0
27.3141 8.1637 10.6320 26 0 0
26.9869 -2.4384 4.7430 30 0 0
28.8631 3.5269 10.6330 13 0 0
32.2986 3.0691 4.7440 33 0 0
31.3683 2.0704 4.7450 35 0 0
32.1517 2.9078 4.7460 39 0 0
29.2856 7.1163 4.7490 35 0 0
16.2681 8.1468 12.8480 28 0 0
19.7894 -3.7785 4.7510 33 0 0
27.9486 4.2963 12.8490 24 0 0
15.4538 5.5956 4.7520 39 0 0
19.3415 10.7462 12.8500 10 0 0
32.1960 2.9439 4.7530 35 0 0
23.2725 4.3491 12.8510 30 0 0
21.8667 5.6823 4.7540 38 0 0
15.6640 7.8756 12.8520 5 0 0
13.9693 3.9777 4.7550 36 0 0
19.9291 1.8112 12.8530 18 0 0
22.1109 6.0837 4.7560 11 0 0
19.4752 10.8933 12.8540 13 0 0
27.2501 -1.8351 4.7570 11 0 0
20.4077 10.2334 12.8550 36 0 0
20.2826 -3.0640 4.7580 45 0 0
20.3520 10.5099 12.8560 26 0 0
29.4444 8.3388 4.7590 4 0 0
28.7666 6.2685 12.8580 15 0 0
31.9837 3.3572 4.7600 36 0 0
22.5923 -1.0249 12.8590 2 0 0
18.8209 -1.7764 4.7610 16 0 0
22.6623 -0.9767 12.8600 23 0 0
13.7228 4.1256 4.7620 36 0 0
21.5548 6.4255 12.8610 26 0 0
13.7447 4.0444 4.7630 34 0 0
26.3500 5.8471 12.8620 26 0 0
13.7556 3.9908 4.7640 21 0 0
22.6964 -1.0077 12.8650 1 0 0
26.6894 -2.5580 4.7650 29 0 0
26.4872 5.3098 12.8660 2 0 0
30.2885 9.4872 4.7670 43 0 0
24.8870 8.6862 12.8680 25 0 0
29.2599 7.0332 4.7680 22 0 0
21.9234 8.5175 12.8690 52 0 0
13.9212 3.9695 4.7700 18 0 0
19.2853 10.4445 12.8700 41 0 0
19.3290 -3.9102 4.7710 1 0 0
27.2559 4.6236 12.8710 32 0 0
13.7902 4.2712 4.7720 29 0 0
15.9341 8.3945 12.8720 21 0 0
13.8643 4.0309 4.7730 26 0 0
20.8137 9.8199 12.8730 58 0 0
19.7284 -1.6104 4.7740 29 0 0
16.1558 8.0026 12.8740 32 0 0
13.7570 4.1535 4.7750 33 0 0
25.6452 7.9092 12.8770 5 0 0
29.2817 7.1098 4.7760 25 0 0
28.4800 3.8231 12.8780 33 0 0
29.5780 7.9815 4.7770 28 0 0
25.0876 8.5132 12.8790 13 0 0
25.3686 -1.8736 4.7780 6 0 0
15.7057 7.9430 12.8800 0 0 0
29.1807 8.4452 4.7790 47 0 0
19.4334 10.8883 12.8810 53 0 0
13.7509 4.1014 4.7800 34 0 0
19.8735 10.2098 12.8820 16 0 0
29.2574 7.7403 4.7810 38 0 0
23.0318 -0.4928 12.8830 19 0 0
24.1511 9.6796 12.8840 38 0 0
25.5313 8.7066 12.8850 7 0 0
16.4123 1.4844 1.5480 10 0 0
23.1833 3.6936 12.8860 22 0 0
16.1328 1.5404 1.5490 25 0 0
21.2395 6.5028 12.8870 2 0 0
16.2734 1.5026 1.5500 22 0 0
22.6396 -0.1577 12.8880 4 0 0
16.0020 1.7014 1.5510 31 0 0
21.8457 9.3624 12.8890 5 0 0
16.1319 1.5643 1.5520 8 0 0
23.2878 4.4383 12.8900 25 0 0
20.7869 1.2589 1.5530 13 0 0
20.6475 9.8628 12.8910 49 0 0
15.9992 1.5476 1.5550 19 0 0
25.0237 8.5048 12.8920 34 0 0
20.2834 0.9560 1.5560 33 0 0
25.7081 7.6537 12.8930 3 0 0
16.4284 1.5154 1.5570 21 0 0
19.4364 10.2965 12.8940 16 0 0
16.3922 1.4714 1.5580 21 0 0
19.5819 1.4032 12.8950 6 0 0
16.0627 1.5288 1.5590 15 0 0
19.1102 10.0858 12.8960 22 0 0
20.8209 9.7784 12.8970 34 0 0
16.4097 1.4985 1.5600 20 0 0
21.7215 4.9970 -0.0210 34 0 0
16.4634 1.5474 1.5610 17 0 0
16.3314 1.4811 1.5620 13 0 0
21.6916 4.9526 -0.0200 31 0 0
16.1076 1.5275 1.5630 20 0 0
22.1610 5.1201 -0.0110 34 0 0
16.1522 1.5027 1.5640 30 0 0
22.2019 5.1662 -0.0100 53 0 0
16.1957 1.5224 1.5650 31 0 0
22.2417 5.1098 -0.0060 59 0 0
20.2738 0.9332 1.5670 23 0 0
21.5694 4.4427 -0.0050 56 0 0
16.2595 1.5050 1.5680 29 0 0
22.7239 4.8553 -0.0030 38 0 0
20.9009 1.3713 1.5690 14 0 0
22.1348 5.0930 -0.0020 9 0 0
16.0906 1.5412 1.5700 18 0 0
22.4516 3.5318 -0.0010 59 0 0
16.4212 1.5152 1.5710 3 0 0
22.7322 3.6320 -0.0000 36 0 0
16.2732 1.4890 1.5720 10 0 0
22.7040 3.7186 0.0010 51 0 0
16.1660 1.5039 1.5740 38 0 0
22.5186 3.7003 0.0020 28 0 0
16.1679 1.4734 1.5750 23 0 0
22.5033 5.0289 0.0030 56 0 0
20.2762 0.9888 1.5760 26 0 0
22.5976 4.9474 0.0050 59 0 0
16.3702 1.5232 1.5770 18 0 0
22.7784 3.8422 0.0070 57 0 0
16.3360 1.5076 1.5780 35 0 0
22.9544 3.7767 0.0090 52 0 0
20.3303 0.9156 1.5790 26 0 0
23.1348 3.9581 0.0100 44 0 0
20.8658 1.3673 1.5800 19 0 0
23.0266 3.9501 0.0120 19 0 0
16.0683 1.4238 1.5810 13 0 0
22.1561 5.0750 0.0130 18 0 0
23.1215 4.5975 0.0140 12 0 0
16.0013 2.1356 2.1460 1 0 0
23.0313 4.6489 0.0160 38 0 0
16.8444 1.3182 2.1470 15 0 0
23.0273 4.6008 0.0170 24 0 0
15.7338 1.9442 2.1480 31 0 0
23.3472 4.0162 0.0190 18 0 0
16.1065 1.5170 2.1490 32 0 0
23.2728 4.1216 0.0200 48 0 0
14.8580 2.8547 2.1500 7 0 0
15.0415 2.9121 2.1510 16 0 0
15.6955 1.9012 2.1520 23 0 0
15.0642 2.8730 2.1530 8 0 0
20.1859 0.8981 2.1540 41 0 0
20.6933 1.2944 2.1550 7 0 0
15.7462 1.8330 2.1570 12 0 0
15.7581 1.8438 2.1590 14 0 0
30.6490 0.7922 2.1600 7 0 0
15.7674 1.8896 2.1610 22 0 0
16.5472 1.3299 2.1620 18 0 0
14.9041 2.8224 2.1640 27 0 0
17.6101 1.6399 2.1650 14 0 0
30.4748 0.6679 2.1660 26 0 0
16.7362 1.3691 2.1670 14 0 0
16.0876 1.4987 2.1690 8 0 0
15.0520 2.8730 2.1700 21 0 0
14.8900 2.8406 2.1710 21 0 0
22.2626 5.1062 12.3700 37 0 0
16.7626 1.3352 2.1720 19 0 0
19.6664 11.1703 12.3710 21 0 0
20.3299 1.2300 2.1730 20 0 0
29.4623 6.0792 12.3720 22 0 0
15.0760 2.8459 2.1740 10 0 0
30.2007 1.2102 2.1750 33 0 0
20.4797 10.5891 12.3730 36 0 0
30.8126 1.1465 2.1760 36 0 0
20.6375 10.2843 12.3750 39 0 0
15.0012 2.7282 2.1770 27 0 0
23.1958 3.1368 12.3760 25 0 0
14.9495 2.7651 2.1780 24 0 0
21.9451 4.8660 12.3770 47 0 0
14.9702 2.7565 2.1800 18 0 0
28.5205 6.7019 12.3780 6 0 0
18.8308 6.5485 12.3790 12 0 0
28.9884 6.3897 12.3800 2 0 0
22.9375 4.0121 0.0220 16 0 0
27.6044 6.6817 12.3820 5 0 0
22.6353 4.8161 0.0230 15 0 0
21.9022 5.0255 12.3830 15 0 0
23.0870 4.2095 0.0250 44 0 0
21.2227 1.3525 12.3840 9 0 0
23.2429 4.3527 0.0300 23 0 0
18.1800 -0.9730 12.3850 35 0 0
21.9264 4.0448 0.0370 56 0 0
22.6471 4.6174 12.3860 4 0 0
22.6236 4.9228 0.0450 55 0 0
27.6111 6.6080 12.3880 17 0 0
22.7326 4.7685 0.0490 37 0 0
18.1775 -0.4079 12.3890 42 0 0
22.0385 5.0630 0.0540 24 0 0
20.3350 10.1318 12.3900 39 0 0
22.7045 4.6384 0.0660 48 0 0
23.1033 8.7277 12.3920 16 0 0
21.9378 4.0564 0.0680 59 0 0
17.7547 6.7703 12.3930 20 0 0
22.7198 4.6272 0.0780 42 0 0
28.9511 7.2693 12.3950 10 0 0
22.6732 4.8110 0.0800 32 0 0
20.3981 10.6024 12.3960 31 0 0
22.7016 4.6511 0.0810 50 0 0
21.1148 1.4551 12.3980 34 0 0
22.7777 4.5677 0.0860 57 0 0
23.8650 1.8514 12.3990 5 0 0
22.4634 0.4194 12.4000 34 0 0
16.1005 1.5445 1.5820 7 0 0
20.0388 11.3416 12.4010 31 0 0
16.1261 1.5430 1.5830 18 0 0
23.3184 2.9944 12.4020 33 0 0
20.3471 0.9005 1.5840 16 0 0
22.4817 0.2756 12.4030 9 0 0
16.3375 1.5246 1.5850 36 0 0
16.0068 1.5004 1.5860 40 0 0
19.2737 10.4939 12.8980 37 0 0
16.2130 1.4979 1.5880 23 0 0
25.3584 7.9478 12.8990 22 0 0
17.9713 2.4129 1.5890 24 0 0
22.7799 -0.4014 12.9000 31 0 0
16.3036 1.5031 1.5900 18 0 0
25.3029 7.5671 12.9010 24 0 0
16.0763 1.5372 1.5910 33 0 0
18.8032 10.1443 12.9020 3 0 0
16.2163 1.5124 1.5920 5 0 0
19.6132 10.4986 12.9030 45 0 0
16.1768 1.4833 1.5930 14 0 0
27.4384 4.7586 12.9040 3 0 0
16.1134 1.3149 1.5940 23 0 0
20.3331 10.4292 12.9050 24 0 0
16.3770 1.5206 1.5950 23 0 0
19.6281 10.4895 12.9060 36 0 0
20.2877 0.9933 1.5970 18 0 0
21.4462 5.4820 12.9080 27 0 0
16.1382 1.5173 1.5980 38 0 0
28.2328 4.0881 12.9090 34 0 0
16.1425 1.5007 1.6000 29 0 0
20.3151 10.3785 12.9100 31 0 0
16.3649 1.5342 1.6020 25 0 0
25.2851 7.5264 12.9110 5 0 0
16.0206 1.5554 1.6030 29 0 0
19.2647 10.6332 12.9120 2 0 0
16.1342 1.3651 1.6040 18 0 0
19.7927 10.2532 12.9130 32 0 0
16.0665 1.3674 1.6060 33 0 0
21.0209 5.7791 12.9150 19 0 0
20.6885 1.1001 1.6070 33 0 0
28.2840 3.5684 12.9160 32 0 0
20.7163 1.2323 1.6080 16 0 0
28.5080 3.8319 12.9170 50 0 0
20.3082 0.9625 1.6090 28 0 0
27.4630 4.5678 12.9180 34 0 0
20.7669 0.8469 1.6100 22 0 0
19.6234 10.3992 12.9190 34 0 0
16.2323 1.5262 1.6110 13 0 0
25.9136 7.9556 12.9200 27 0 0
16.1198 1.3855 1.6120 24 0 0
28.6876 5.7132 12.9210 2 0 0
20.7661 1.3386 1.6130 26 0 0
28.3031 3.8794 12.9220 2 0 0
15.3765 2.0322 1.6140 10 0 0
19.0399 10.6984 12.9230 20 0 0
20.6800 0.8798 1.6150 21 0 0
21.1011 1.9425 12.9240 27 0 0
16.1113 1.3404 1.6160 16 0 0
25.5672 8.7234 12.9250 6 0 0
16.2946 1.5298 1.6170 32 0 0
23.2520 4.3261 12.9260 11 0 0
15.3461 2.0719 1.6180 23 0 0
28.3760 3.6358 12.9270 27 0 0
20.3802 0.9386 1.6190 32 0 0
27.8899 2.9252 12.9280 5 0 0
17.9317 1.3700 1.6200 31 0 0
22.8344 -0.6396 12.9290 17 0 0
22.7113 -0.7046 12.9300 15 0 0
24.8745 8.5757 12.9310 41 0 0
29.3395 7.3918 4.7820 26 0 0
21.2093 6.4570 12.9320 27 0 0
26.8179 -2.7329 4.7830 38 0 0
23.2868 8.4766 12.9330 28 0 0
13.7618 4.1813 4.7840 27 0 0
22.8847 4.5514 12.9340 22 0 0
32.0119 2.9082 4.7850 17 0 0
28.1835 3.7766 12.9360 36 0 0
30.1842 1.7727 4.7870 4 0 0
19.8109 10.3297 12.9380 42 0 0
13.6367 4.2717 4.7880 22 0 0
23.8262 3.9065 12.9390 23 0 0
13.9639 3.9715 4.7890 35 0 0
25.1011 8.6207 12.9400 16 0 0
29.3206 8.0322 4.7900 23 0 0
21.5415 9.3545 12.9420 4 0 0
19.7481 -1.5916 4.7910 25 0 0
28.1927 3.5088 12.9430 3 0 0
13.6867 4.2911 4.7920 33 0 0
28.3419 3.9129 12.9440 45 0 0
30.1968 5.9112 4.7930 24 0 0
19.2990 10.4407 12.9450 31 0 0
27.3913 1.9792 4.7940 38 0 0
19.8376 10.2727 12.9460 18 0 0
13.8803 4.0361 4.7950 46 0 0
24.1098 10.6862 12.9470 28 0 0
19.2536 10.4270 12.9480 38 0 0
26.7701 -2.7728 4.7960 26 0 0
21.3401 5.1990 12.9490 25 0 0
20.0695 -3.4557 4.7970 40 0 0
19.4553 10.3026 12.9500 41 0 0
27.7963 8.2680 4.7980 43 0 0
23.3886 3.7773 4.7990 25 0 0
20.5814 0.7526 1.6210 38 0 0
13.7439 4.0646 4.8000 20 0 0
16.1217 1.3673 1.6220 13 0 0
13.8046 3.9924 4.8010 41 0 0
16.3860 1.5772 1.6230 13 0 0
27.2255 1.3699 4.8020 26 0 0
20.8029 1.3939 1.6240 5 0 0
30.7777 4.8878 4.8030 19 0 0
16.0919 1.6278 1.6250 39 0 0
13.8275 4.2339 4.8040 26 0 0
29.5224 7.6581 4.8050 25 0 0
16.6045 4.0480 12.4040 11 0 0
18.7430 -1.7910 4.8060 25 0 0
20.5487 10.3354 12.4050 19 0 0
13.7222 4.2721 4.8070 37 0 0
19.0857 10.7773 12.4060 0 0 0
29.4469 8.3700 4.8080 23 0 0
22.1729 -1.0101 12.4080 24 0 0
13.8900 4.0380 4.8090 21 0 0
21.1556 1.4753 12.4090 27 0 0
13.7759 4.2758 4.8110 30 0 0
23.1367 -1.3554 12.4100 28 0 0
13.7757 3.9953 4.8120 17 0 0
22.4853 10.4606 12.4110 48 0 0
13.7300 3.9630 4.8130 17 0 0
19.5937 11.0860 12.4120 13 0 0
15.0885 5.1111 4.8140 7 0 0
16.6295 4.0595 12.4130 31 0 0
23.1750 3.9497 4.8150 23 0 0
23.9235 1.8657 12.4140 5 0 0
25.1728 -2.5237 4.8160 27 0 0
18.5535 0.6058 12.4150 16 0 0
15.2841 5.1097 4.8170 14 0 0
21.5603 2.4468 12.4160 25 0 0
13.7111 4.1872 4.8180 26 0 0
19.9246 11.3368 12.4170 39 0 0
13.8131 4.2041 4.8190 30 0 0
22.5048 1.8150 12.4180 4 0 0
16.5275 5.5680 12.4190 32 0 0
22.5988 4.8955 0.0880 11 0 0
22.6972 4.7961 0.0950 25 0 0
22.3434 4.6539 2.1820 22 0 0
22.7386 4.7115 0.0960 47 0 0
15.0189 2.8765 2.1840 31 0 0
14.9953 2.7730 2.1850 26 0 0
22.7395 4.6044 0.0970 48 0 0
30.8981 1.4432 2.1860 31 0 0
22.7862 4.5210 0.1030 43 0 0
30.9453 1.1839 2.1870 14 0 0
22.6140 4.8879 0.1100 14 0 0
15.6519 1.7394 2.1880 22 0 0
15.8789 1.5827 2.1890 31 0 0
15.0810 2.9290 2.1910 30 0 0
21.9006 4.1906 0.1180 50 0 0
30.4785 0.0352 2.1920 2 0 0
22.5749 4.8946 0.1320 34 0 0
15.0433 2.8644 2.1940 11 0 0
22.0737 5.0340 0.1370 38 0 0
22.4067 4.4464 2.1950 34 0 0
22.7027 4.6323 0.1390 54 0 0
16.8958 1.6129 2.1960 11 0 0
22.5701 4.1076 0.1430 20 0 0
16.8418 1.3825 2.1970 28 0 0
22.6644 4.3138 0.1470 39 0 0
15.0631 2.9543 2.1980 30 0 0
22.6904 4.7815 0.1520 47 0 0
15.1007 2.8266 2.2010 26 0 0
22.7053 4.7222 0.1620 33 0 0
15.0618 2.8505 2.2020 27 0 0
21.8492 4.2755 0.1710 56 0 0
15.0790 2.8296 2.2040 41 0 0
22.5544 4.7920 0.1760 51 0 0
30.9805 0.8880 2.2050 11 0 0
22.2728 4.5857 2.2060 21 0 0
18.4901 -0.9719 12.4200 1 0 0
14.9919 2.8575 2.2070 24 0 0
20.4344 3.3839 12.4210 4 0 0
15.0210 2.9637 2.2080 16 0 0
29.7840 5.9098 12.4220 1 0 0
15.6334 1.7864 2.2090 28 0 0
17.9498 7.3035 12.4230 51 0 0
15.1225 2.5947 2.2100 8 0 0
22.4861 1.9732 12.4260 20 0 0
15.6437 1.7667 2.2110 12 0 0
20.2815 10.7674 12.4280 33 0 0
15.1400 2.7674 2.2130 15 0 0
23.0002 2.2334 12.4290 36 0 0
30.6687 -0.0019 2.2140 3 0 0
30.0886 1.5423 2.2160 36 0 0
30.9060 1.0974 2.2170 17 0 0
15.0680 2.9908 2.2180 22 0 0
15.1441 2.7911 2.2190 47 0 0
15.0403 3.0178 2.2200 20 0 0
29.3851 6.7605 4.8200 16 0 0
15.7437 1.7516 2.2210 31 0 0
13.9381 4.0010 4.8210 35 0 0
15.0327 2.9818 2.2220 31 0 0
21.5545 5.1814 4.8220 57 0 0
30.4475 0.7429 2.2230 38 0 0
15.1949 3.7783 4.8230 24 0 0
15.0345 2.7382 2.2240 14 0 0
13.7719 4.2607 4.8240 30 0 0
15.6915 1.7441 2.2250 13 0 0
20.0939 -3.4054 4.8250 25 0 0
29.3417 8.3802 4.8260 37 0 0
15.4135 2.0718 1.6260 4 0 0
16.1561 1.5924 1.6270 21 0 0
19.9097 0.2770 1.6280 4 0 0
16.1941 1.5005 1.6290 27 0 0
15.4260 2.0610 1.6300 33 0 0
16.3656 1.6008 1.6310 15 0 0
17.8642 1.3824 1.6320 32 0 0
15.3847 2.0674 1.6340 32 0 0
16.0957 1.6415 1.6350 34 0 0
16.3315 1.6942 1.6360 42 0 0
20.7173 1.2759 1.6370 16 0 0
20.6552 0.8439 1.6380 29 0 0
16.0298 1.5754 1.6390 30 0 0
15.3640 2.0638 1.6400 12 0 0
16.2357 1.4502 1.6410 27 0 0
16.1767 1.5580 1.6440 47 0 0
20.7731 1.2663 1.6450 17 0 0
16.2470 1.5452 1.6470 51 0 0
15.3806 2.0559 1.6480 17 0 0
16.3112 1.5513 1.6500 14 0 0
15.4029 2.0521 1.6520 24 0 0
18.0544 2.4998 1.6530 22 0 0
15.3768 2.0752 1.6540 47 0 0
15.4065 2.0730 1.6550 9 0 0
15.3546 2.1257 1.6560 13 0 0
16.0671 1.6213 1.6570 20 0 0
21.4806 2.0881 12.9510 20 0 0
20.5756 0.7277 1.6580 12 0 0
29.1144 5.5249 12.9530 2 0 0
16.1472 1.4074 1.6590 21 0 0
19.3272 10.4875 12.9550 32 0 0
24.8201 8.5054 12.9560 8 0 0
16.0912 1.4156 1.6600 23 0 0
24.0401 10.7692 12.9570 12 0 0
15.3963 2.1429 1.6610 17 0 0
21.5678 5.4712 12.9580 32 0 0
16.0679 1.4260 1.6620 6 0 0
19.8613 10.4351 12.9610 40 0 0
20.6713 0.8835 1.6630 30 0 0
20.6464 9.7396 12.9620 37 0 0
28.2621 3.7623 12.9630 54 0 0
29.2402 6.5479 4.8270 27 0 0
19.4671 -3.9253 4.8280 25 0 0
15.0442 2.6153 2.2260 23 0 0
27.9952 -0.9366 4.8290 28 0 0
15.1055 2.6794 2.2270 30 0 0
14.0583 3.4322 4.8300 26 0 0
16.8787 1.5469 2.2280 35 0 0
20.5144 -2.9884 4.8310 11 0 0
15.1160 2.9280 2.2290 25 0 0
30.9963 1.3179 2.2300 20 0 0
17.9148 6.8834 12.4300 35 0 0
15.1654 2.5478 2.2310 14 0 0
24.9484 8.2925 12.4320 24 0 0
15.1378 2.7793 2.2320 30 0 0
29.5139 4.5363 12.4330 9 0 0
30.1346 1.3887 2.2330 59 0 0
25.9613 0.5198 12.4340 12 0 0
15.0894 2.5860 2.2340 14 0 0
22.3864 1.9358 12.4350 28 0 0
15.0741 2.9682 2.2350 24 0 0
22.5707 10.3606 12.4360 40 0 0
30.1051 1.2051 2.2360 39 0 0
24.2218 10.6368 12.4380 45 0 0
30.4831 0.1743 2.2370 11 0 0
29.7398 5.9238 12.4390 43 0 0
18.0092 -1.1316 12.4400 10 0 0
22.5615 4.8252 0.1790 58 0 0
22.5626 4.8565 0.1820 56 0 0
29.4422 5.8703 12.4410 17 0 0
22.5516 4.8218 0.1930 32 0 0
22.0160 9.2513 12.4420 22 0 0
21.9782 4.1205 0.1950 59 0 0
22.6303 1.9060 12.4430 15 0 0
22.5500 4.8207 0.2080 35 0 0
25.0641 8.3142 12.4440 25 0 0
21.6853 4.4866 0.2130 42 0 0
19.9334 10.9916 12.4450 46 0 0
22.5612 4.8396 0.2150 22 0 0
26.5668 2.5122 12.4470 19 0 0
21.6817 4.4987 0.2250 58 0 0
22.5779 4.8783 0.2280 34 0 0
15.0419 2.8353 2.2400 14 0 0
21.8673 4.2932 0.2320 24 0 0
16.0230 1.9489 2.2410 38 0 0
22.7080 4.6213 0.2380 35 0 0
30.3724 1.8909 2.2430 44 0 0
22.6265 4.7731 0.2520 30 0 0
21.7918 4.3047 0.2570 45 0 0
29.4597 7.2686 4.8320 31 0 0
22.6431 4.3232 0.2640 36 0 0
13.6859 3.8902 4.8330 26 0 0
21.8830 4.2761 0.2660 29 0 0
13.7163 4.1002 4.8340 24 0 0
22.5316 4.7930 0.2670 32 0 0
13.8009 4.1624 4.8350 29 0 0
22.1969 4.9410 0.2700 28 0 0
29.5350 7.8813 4.8360 16 0 0
22.6646 4.7278 0.2720 21 0 0
22.6362 4.3502 0.2800 30 0 0
29.5568 7.7290 4.8380 30 0 0
22.1890 4.9660 0.2900 58 0 0
19.9393 -1.4566 4.8390 28 0 0
22.5320 4.7700 0.2920 19 0 0
13.7115 3.9181 4.8400 36 0 0
22.7155 4.5483 0.2950 56 0 0
18.8853 -1.5730 4.8410 32 0 0
22.1089 4.0586 0.3030 35 0 0
26.8608 -2.3292 4.8420 42 0 0
22.5154 4.8905 0.3110 32 0 0
31.7800 2.9072 4.8430 0 0 0
22.4264 4.9403 0.3170 17 0 0
30.1196 6.1089 4.8440 22 0 0
22.5048 4.8916 0.3270 40 0 0
20.0439 -3.5338 4.8450 38 0 0
22.4498 4.9348 0.3330 44 0 0
28.5015 4.3109 4.8460 24 0 0
22.5486 4.7915 0.3350 18 0 0
13.6174 4.0010 4.8470 28 0 0
22.6386 4.7351 0.3670 38 0 0
14.0746 3.4473 4.8480 26 0 0
21.9167 4.2301 0.3690 27 0 0
13.5868 4.0235 4.8500 23 0 0
22.5141 4.8161 0.3710 44 0 0
22.6954 4.6063 0.3720 49 0 0
27.5483 4.5216 12.9640 30 0 0
22.0412 4.1491 0.3860 48 0 0
28.0027 6.0656 12.9650 6 0 0
22.0435 4.1997 0.3880 50 0 0
28.6368 4.4885 12.9660 4 0 0
21.9358 4.2204 0.3940 40 0 0
19.7742 10.6086 12.9670 25 0 0
22.4997 4.8659 0.3950 22 0 0
24.8125 8.6115 12.9690 11 0 0
21.7354 4.6861 0.3970 42 0 0
21.4154 5.5534 12.9700 10 0 0
21.8230 4.2692 0.4050 39 0 0
21.7509 4.6676 0.4080 26 0 0
22.3319 4.9336 0.4180 47 0 0
22.4950 4.8761 0.4190 27 0 0
22.6968 4.5522 0.4210 54 0 0
21.7265 4.6381 0.4300 52 0 0
22.5669 4.7898 0.4410 56 0 0
21.7324 4.6852 0.4440 25 0 0
22.4674 4.8909 0.4480 20 0 0
22.6497 4.6536 0.4510 50 0 0
22.0045 4.9361 0.4590 33 0 0
22.6882 4.5436 0.4600 25 0 0
22.3349 4.1460 0.4700 51 0 0
22.6212 4.6922 0.4730 50 0 0
22.5833 4.7475 0.4750 24 0 0
21.9734 4.1759 0.4800 35 0 0
21.9020 4.2283 0.4820 41 0 0
22.4745 4.8445 0.4860 25 0 0
22.0559 4.2011 0.5050 44 0 0
21.7530 4.3544 0.5120 19 0 0
22.6785 4.6041 0.5130 54 0 0
21.7998 4.7267 0.5140 49 0 0
21.8488 4.8029 0.5150 58 0 0
21.7858 4.5576 0.5230 51 0 0
22.6620 4.6292 0.5330 37 0 0
21.7632 4.3053 0.5420 34 0 0
22.3653 4.1393 0.5520 52 0 0
22.6841 4.5616 0.5540 22 0 0
21.8689 4.2319 0.5680 41 0 0
21.8337 4.2817 0.5720 28 0 0
21.8024 4.2828 0.5730 49 0 0
22.6600 4.3340 0.5770 27 0 0
21.9955 4.1584 0.5860 42 0 0
21.7490 4.4312 0.5900 28 0 0
22.6726 4.6073 0.5980 30 0 0
21.7813 4.4773 0.6200 24 0 0
21.7750 4.2696 0.6210 57 0 0
21.7582 4.2847 0.6330 47 0 0
21.7670 4.5357 0.6430 55 0 0
22.3592 4.9296 0.6500 32 0 0
22.6072 4.4277 0.6520 34 0 0
22.5446 4.7728 0.6550 44 0 0
22.5571 4.6824 0.6580 13 0 0
21.9550 4.8987 0.6610 17 0 0
22.1040 4.0343 0.6650 22 0 0
22.4008 4.7165 0.6690 20 0 0
21.7815 4.2864 0.6700 53 0 0
22.3964 4.1160 0.6710 50 0 0
22.3949 4.8825 0.6730 6 0 0
22.5542 4.6743 0.6790 12 0 0
22.0933 4.1638 0.6800 51 0 0
21.9536 4.1692 0.6810 59 0 0
22.6723 4.6059 0.6830 41 0 0
22.5705 4.6895 0.6860 44 0 0
22.3948 4.8983 0.6960 17 0 0
22.6627 4.6126 0.7000 51 0 0
21.7486 4.3416 0.7020 52 0 0
22.4030 4.8711 0.7040 50 0 0
22.5287 4.7469 0.7080 46 0 0
22.4738 4.7448 0.7090 48 0 0
22.3918 4.8938 0.7120 51 0 0
22.3972 4.7164 0.7140 41 0 0
21.7608 4.5497 0.7160 57 0 0
21.7423 4.3505 0.7170 56 0 0
22.6092 4.6641 0.7220 15 0 0
22.4659 4.7282 0.7310 43 0 0
21.8530 4.2145 0.7340 28 0 0
22.0903 4.0883 0.7370 27 0 0
22.2724 4.9503 0.7410 27 0 0
22.4071 4.8202 0.7450 37 0 0
21.7722 4.5872 0.7560 21 0 0
22.1989 4.9191 0.7570 42 0 0
21.7692 4.4026 0.7660 52 0 0
21.8222 4.2478 0.7690 24 0 0
22.2087 4.0005 0.7700 27 0 0
22.3155 5.0089 0.7720 12 0 0
21.7796 4.2630 0.7740 59 0 0
21.7790 4.5014 0.7770 48 0 0
22.5501 4.6542 0.7790 36 0 0
21.8895 4.2011 0.7890 46 0 0
21.7555 4.3232 0.7930 44 0 0
22.3490 4.9787 0.7960 26 0 0
21.8053 4.4832 0.8000 23 0 0
21.8764 4.1918 0.8030 19 0 0
22.1114 4.0567 0.8040 29 0 0
22.6107 4.3898 0.8080 16 0 0
22.2678 4.9360 0.8120 53 0 0
22.3620 5.0123 0.8140 37 0 0
21.8991 4.1944 0.8150 54 0 0
21.9201 4.8337 0.8230 49 0 0
21.7884 4.4933 0.8240 40 0 0
22.1620 3.9920 0.8250 46 0 0
22.5075 4.7319 0.8280 28 0 0
21.8657 4.7720 0.8330 45 0 0
21.9997 4.1369 0.8340 16 0 0
22.5243 4.7254 0.8350 39 0 0
21.9747 4.1376 0.8360 36 0 0
22.6163 4.4218 0.8390 4 0 0
22.5500 4.6958 0.8400 36 0 0
22.3797 4.8400 0.8410 51 0 0
22.6305 4.3964 0.8430 52 0 0
21.8192 4.2433 0.8490 47 0 0
21.9464 4.1899 0.8500 30 0 0
21.8078 4.2474 0.8620 24 0 0
22.3407 4.7218 0.8700 49 0 0
22.6747 4.5574 0.8730 29 0 0
22.0724 4.1136 0.8740 28 0 0
22.3551 4.7552 0.8770 55 0 0
22.5996 4.6378 0.8840 16 0 0
22.1980 3.9758 0.8850 56 0 0
21.8152 4.4535 0.8920 34 0 0
22.6271 4.6058 0.9040 13 0 0
21.8638 4.2062 0.9180 50 0 0
21.8107 4.2397 0.9260 34 0 0
21.9556 4.1682 0.9270 20 0 0
21.8992 4.7956 0.9330 57 0 0
22.3451 4.7017 0.9430 47 0 0
22.4265 4.0821 0.9480 41 0 0
21.8170 4.5931 0.9560 18 0 0
21.9123 4.8135 1.0110 28 0 0
22.2546 3.9215 1.0710 23 0 0
22.2723 3.9242 1.0800 54 0 0
21.9284 4.8150 1.0810 35 0 0
22.6725 4.5363 1.0830 58 0 0
22.2134 4.9575 1.0920 53 0 0
21.8871 4.7626 1.1290 27 0 0
22.6282 4.0323 1.1900 0 0 0
19.2718 0.1643 1.1910 22 0 0
22.6091 4.0177 1.2000 1 0 0
19.3100 0.2108 1.2110 17 0 0
19.2109 0.1188 1.2180 9 0 0
22.7850 4.1933 1.2220 56 0 0
19.2038 0.1358 1.2230 21 0 0
19.1851 0.1814 1.2320 25 0 0
19.1982 0.1576 1.2360 9 0 0
19.2319 0.1949 1.2420 16 0 0
19.2215 0.2218 1.2430 28 0 0
19.3785 0.3461 1.2440 27 0 0
19.2937 0.1785 1.2460 33 0 0
19.3870 0.3999 1.2470 5 0 0
19.2056 0.1922 1.2490 31 0 0
19.3163 0.3561 1.2520 30 0 0
19.3328 0.4437 1.2540 11 0 0
19.1948 0.2213 1.2550 27 0 0
19.4011 0.3731 1.2570 26 0 0
19.3227 0.1807 1.2600 34 0 0
19.3760 0.4190 1.2620 22 0 0
19.2259 0.2433 1.2630 2 0 0
19.2826 0.2062 1.2670 13 0 0
19.2831 0.1796 1.2690 24 0 0
19.2402 0.2558 1.2730 28 0 0
19.2484 0.1784 1.2750 12 0 0
19.3346 0.3666 1.2850 18 0 0
19.2921 0.2448 1.2860 38 0 0
19.3267 0.1994 1.2870 27 0 0
19.3200 0.3526 1.2880 16 0 0
19.3419 0.4048 1.2930 32 0 0
19.3082 0.2047 1.2940 30 0 0
19.2450 0.2335 1.2950 39 0 0
19.3583 0.3001 1.2980 33 0 0
19.3681 0.3608 1.2990 7 0 0
19.3689 0.3320 1.3000 5 0 0
19.3840 0.3158 1.3010 20 0 0
21.2825 5.6272 12.9710 12 0 0
28.1841 4.0218 12.9720 1 0 0
18.9700 9.6586 12.9730 37 0 0
16.1178 1.6241 1.6640 17 0 0
27.9252 3.1889 12.9740 5 0 0
20.6774 2.0276 1.6650 17 0 0
20.7181 2.3808 12.9750 25 0 0
16.2186 1.5594 1.6660 36 0 0
26.6117 2.7900 12.9760 40 0 0
17.8543 1.2786 1.6670 22 0 0
23.2964 4.4799 12.9770 19 0 0
20.5933 0.7426 1.6680 26 0 0
19.3558 10.3413 12.9780 38 0 0
15.3736 2.1403 1.6690 19 0 0
27.8871 4.0679 12.9790 22 0 0
16.3065 1.5701 1.6700 12 0 0
21.5368 5.7334 12.9800 10 0 0
15.3537 2.0957 1.6710 5 0 0
19.0704 10.1127 12.9810 20 0 0
23.2550 4.4604 12.9820 35 0 0
17.9898 -1.1440 12.4480 10 0 0
28.6179 4.6539 12.9830 49 0 0
23.2296 8.8904 12.4490 3 0 0
21.4963 5.1771 12.9840 27 0 0
23.1719 8.8594 12.4500 37 0 0
27.9099 4.0963 12.9850 4 0 0
18.2385 -1.2708 12.4510 40 0 0
28.9359 5.8053 12.9860 8 0 0
23.5020 -0.5917 12.4520 0 0 0
20.7045 7.8010 12.9870 16 0 0
19.0096 2.2550 12.4540 30 0 0
25.1880 7.7834 12.9880 23 0 0
22.2434 9.9139 12.4550 34 0 0
23.8674 9.6237 12.9890 2 0 0
17.7702 9.9375 12.4560 24 0 0
20.3769 10.1418 12.9900 43 0 0
27.9969 2.8759 12.4570 13 0 0
28.6241 4.5897 12.9910 34 0 0
24.2206 10.0838 12.4580 30 0 0
22.7429 3.6151 12.9920 12 0 0
19.4757 10.9757 12.4590 23 0 0
21.4235 5.2040 12.9930 23 0 0
17.9060 7.5077 12.4600 21 0 0
28.0131 4.0871 12.9950 1 0 0
21.7338 3.2463 12.9960 37 0 0
17.3787 8.1796 12.9970 45 0 0
22.4661 -0.1027 12.9980 55 0 0
22.2224 7.1860 12.9990 43 0 0
27.9709 3.8504 13.0000 37 0 0
20.7084 7.0605 13.0020 31 0 0
28.3204 5.9313 13.0030 10 0 0
28.3184 2.9009 13.0040 14 0 0
27.6625 4.1554 13.0050 7 0 0
23.0963 3.7631 13.0060 10 0 0
27.9095 6.1577 13.0070 18 0 0
23.8162 9.7394 13.0080 18 0 0
27.2316 5.7915 13.0090 1 0 0
19.8345 10.1419 13.0100 44 0 0
23.8913 9.6418 13.0110 54 0 0
28.0747 2.8023 13.0120 7 0 0
19.3919 10.6177 13.0130 30 0 0
29.0530 5.9272 13.0140 19 0 0
27.9412 6.1788 13.0150 23 0 0
27.4219 4.1580 13.0160 18 0 0
28.0421 6.0065 13.0170 5 0 0
18.8270 10.1159 13.0180 30 0 0
24.9694 4.1532 13.0190 45 0 0
22.2396 7.4406 13.0200 24 0 0
26.3497 6.7247 13.0210 31 0 0
27.6224 4.4392 13.0220 9 0 0
22.6506 4.4841 13.0230 25 0 0
22.9701 5.7235 13.0250 45 0 0
20.8566 2.1187 13.0260 23 0 0
28.1018 3.9061 13.0270 42 0 0
28.0236 2.7931 13.0290 27 0 0
28.1754 4.1381 13.0300 31 0 0
19.9862 10.3189 13.0310 11 0 0
17.1247 10.1598 13.0320 20 0 0
26.1943 1.3981 13.0350 35 0 0
19.7571 3.7551 13.0360 2 0 0
28.2676 3.8188 13.0370 12 0 0
19.7753 10.2066 13.0380 21 0 0
24.5243 3.5144 13.0390 29 0 0
21.1497 5.3056 13.0400 30 0 0
22.8887 4.7294 13.0410 28 0 0
26.5640 6.1855 13.0420 1 0 0
22.9117 4.7125 13.0430 31 0 0
26.4208 6.7210 13.0450 59 0 0
28.0575 3.0571 13.0460 33 0 0
19.6134 10.2245 13.0470 29 0 0
19.4045 10.4369 13.0480 1 0 0
19.9899 10.3068 13.0490 38 0 0
27.3828 2.9012 13.0500 8 0 0
26.2902 7.0047 13.0510 10 0 0
28.1083 5.5244 13.0520 13 0 0
20.9686 6.2086 13.0530 22 0 0
26.1005 7.1069 13.0540 14 0 0
19.1645 9.7507 13.0550 42 0 0
19.0789 10.1249 13.0560 16 0 0
27.5477 6.1605 13.0570 12 0 0
25.4923 3.8652 13.0580 2 0 0
28.2094 2.7138 13.0590 0 0 0
27.4126 5.3256 13.0600 3 0 0
26.1211 7.3602 13.0610 5 0 0
28.1767 3.3910 13.0620 23 0 0
23.1862 3.3810 13.0630 28 0 0
27.2954 3.9732 13.0640 12 0 0
27.7980 6.2185 13.0650 4 0 0
22.4833 8.6105 13.0670 33 0 0
17.7304 8.3178 13.0680 33 0 0
18.8875 10.0839 13.0690 12 0 0
19.0421 10.1821 13.0700 29 0 0
27.3468 5.3979 13.0710 21 0 0
19.4243 10.1350 13.0740 26 0 0
28.3397 4.6214 13.0760 14 0 0
28.1612 3.9469 13.0770 2 0 0
26.2130 7.1313 13.0780 30 0 0
16.8681 4.5831 13.0790 1 0 0
28.1257 4.3038 13.0800 23 0 0
19.4129 10.1686 13.0810 26 0 0
28.0657 3.0922 13.0820 19 0 0
19.4922 2.4368 13.0850 9 0 0
27.3811 4.1292 13.0860 41 0 0
19.3534 10.1314 13.0880 16 0 0
26.2261 6.2652 13.0890 56 0 0
19.5207 10.6157 13.0900 36 0 0
24.4813 3.4020 13.0910 45 0 0
19.5618 8.0945 13.0920 13 0 0
22.8062 4.6919 13.0930 18 0 0
26.1690 3.0441 13.0940 35 0 0
28.7733 4.8188 13.0960 5 0 0
28.0592 3.4794 13.0970 18 0 0
28.2617 2.7507 13.0980 1 0 0
22.5577 8.8259 13.1000 19 0 0
18.8317 10.0519 13.1020 13 0 0
16.1914 8.4600 13.1030 43 0 0
19.6390 10.1899 13.1040 48 0 0
28.3752 4.5902 13.1050 32 0 0
27.8813 3.8422 13.1070 23 0 0
27.6190 6.0370 13.1080 8 0 0
19.2301 10.0529 13.1090 32 0 0
27.8804 3.4327 13.1100 35 0 0
19.5676 4.9264 13.1110 18 0 0
18.7390 4.9643 13.1130 47 0 0
20.6430 9.8952 13.1140 13 0 0
22.5867 4.5417 13.1150 26 0 0
22.5913 4.5854 13.1160 30 0 0
23.9944 10.5704 13.1180 29 0 0
27.2697 4.1412 13.1190 17 0 0
22.7366 4.7541 13.1200 44 0 0
23.2117 2.7868 13.1210 18 0 0
20.4354 8.0675 13.1230 19 0 0
27.4829 4.0579 13.1240 0 0 0
19.9969 10.4476 13.1250 10 0 0
25.6827 8.2773 13.1260 38 0 0
25.0479 8.4411 13.1270 20 0 0
25.8300 8.2993 13.1280 35 0 0
25.2536 8.0355 13.1290 22 0 0
27.2407 4.1390 13.1300 17 0 0
22.9058 4.5908 13.1310 53 0 0
22.7706 4.6141 13.1320 32 0 0
16.8228 6.1500 13.1340 8 0 0
25.2495 4.0928 13.1350 0 0 0
28.2617 2.7923 13.1360 40 0 0
22.9500 4.5976 13.1370 44 0 0
23.8546 9.9746 13.1380 46 0 0
22.7265 4.7078 13.1390 35 0 0
28.3170 2.7971 13.1410 41 0 0
22.8173 4.6520 13.1430 16 0 0
26.4665 6.7447 13.1440 22 0 0
24.2478 8.4992 13.1450 33 0 0
23.0970 2.6960 13.1460 16 0 0
25.0487 8.2666 13.1470 20 0 0
26.3457 6.6680 13.1480 49 0 0
25.8276 6.8052 13.1490 19 0 0
20.6335 7.8010 13.1500 12 0 0
19.3375 9.7015 13.1510 38 0 0
24.4136 3.5048 13.1520 20 0 0
21.4068 7.4792 13.1540 32 0 0
28.3506 4.5471 13.1550 13 0 0
21.2025 5.3748 13.1560 48 0 0
16.4878 6.2256 13.1570 13 0 0
22.2931 9.2022 13.1580 17 0 0
25.6960 2.1591 13.1590 1 0 0
25.7268 8.3207 13.1610 34 0 0
20.4524 10.5220 13.1620 41 0 0
21.4382 7.4659 13.1630 42 0 0
22.1517 9.1268 13.1640 19 0 0
27.5772 6.1360 13.1650 44 0 0
20.8532 7.9770 13.1660 29 0 0
25.8699 6.8388 13.1670 34 0 0
19.4007 10.4648 13.1680 1 0 0
23.0599 8.3090 13.1690 14 0 0
22.3652 9.2960 13.1700 21 0 0
21.7457 7.3807 13.1710 41 0 0
23.5450 10.6937 13.1720 36 0 0
21.2634 5.3578 13.1740 25 0 0
28.1351 5.3878 13.1750 17 0 0
19.0516 9.8705 13.1760 3 0 0
22.8587 4.4425 13.1770 39 0 0
24.3808 8.4755 13.1780 34 0 0
22.9153 4.7126 13.1790 43 0 0
22.7204 4.4477 13.1800 8 0 0
19.7756 7.8317 13.1810 21 0 0
20.5147 10.2796 13.1820 38 0 0
27.7069 3.7043 13.1840 41 0 0
26.7678 6.8780 13.1850 7 0 0
21.7484 7.5503 13.1860 38 0 0
22.6798 3.3196 13.1870 40 0 0
19.6499 8.2106 13.1880 14 0 0
22.7521 3.3057 13.1900 35 0 0
19.7516 8.0510 13.1910 30 0 0
24.3704 8.3776 13.1920 39 0 0
22.3605 8.7515 13.1930 9 0 0
25.0044 7.8007 13.1940 31 0 0
19.7591 7.8984 13.1950 33 0 0
20.4851 10.2452 13.1970 21 0 0
22.7694 4.6904 13.1980 35 0 0
28.0570 5.9472 13.1990 2 0 0
18.7287 4.6252 13.2000 13 0 0
25.6702 8.3799 13.2010 24 0 0
18.4305 5.1688 13.2020 15 0 0
27.3276 3.5185 13.2030 9 0 0
24.9451 7.7894 13.2040 0 0 0
24.3509 3.5988 13.2050 5 0 0
20.2961 9.4469 13.2060 22 0 0
28.4370 4.4784 13.2070 5 0 0
24.2939 8.4582 13.2080 15 0 0
20.5414 10.2764 13.2090 48 0 0
22.3817 9.1460 13.2100 38 0 0
22.9611 4.5993 13.2120 39 0 0
19.7266 7.9305 13.2130 30 0 0
20.3059 5.4394 13.2140 25 0 0
21.5060 7.4097 13.2160 19 0 0
27.6751 3.5742 13.2170 1 0 0
22.8929 3.6696 13.2180 18 0 0
26.5308 3.0536 13.2190 28 0 0
22.6289 3.7868 13.2200 38 0 0
25.7687 6.9007 13.2210 34 0 0
19.7152 7.7265 13.2220 5 0 0
22.6672 4.5386 13.2230 38 0 0
27.6349 2.6692 13.2240 5 0 0
21.9407 5.1494 13.2250 23 0 0
18.6160 4.5664 13.2260 22 0 0
24.8912 7.9558 13.2270 8 0 0
24.3358 8.2307 13.2280 33 0 0
22.9532 8.3144 13.2310 19 0 0
19.6694 9.3201 13.2320 3 0 0
22.3720 8.5723 13.2330 41 0 0
16.1598 8.7596 13.2340 39 0 0
25.0371 8.4114 13.2370 39 0 0
22.1611 9.1065 13.2380 8 0 0
25.3467 1.6014 13.2390 56 0 0
24.9727 7.7624 13.2400 2 0 0
16.8038 6.4647 13.2410 6 0 0
24.5456 8.3446 13.2420 16 0 0
22.7696 3.7576 13.2450 20 0 0
20.8379 9.4060 13.2460 26 0 0
25.2512 8.1966 13.2470 32 0 0
26.4355 1.6077 13.2480 28 0 0
24.7122 6.7446 13.2490 29 0 0
19.5046 9.4963 13.2500 33 0 0
20.2977 10.0859 13.2510 6 0 0
20.9495 8.6327 13.2520 3 0 0
23.1609 8.2076 13.2530 0 0 0
25.2119 3.9780 13.2540 44 0 0
19.9613 8.8860 13.2560 42 0 0
16.9177 6.4264 13.2570 3 0 0
25.4321 4.1948 13.2580 35 0 0
17.2541 6.2257 13.2600 3 0 0
22.3599 3.9494 13.2610 35 0 0
24.4829 8.1559 13.2630 38 0 0
24.7917 8.4952 13.2640 4 0 0
22.8535 3.2488 13.2650 42 0 0
17.2972 6.2341 13.2660 8 0 0
17.2561 6.2577 13.2670 9 0 0
19.7523 7.8715 13.2680 41 0 0
21.9361 5.3224 13.2690 35 0 0
18.8046 4.5576 13.2700 18 0 0
27.1975 3.4878 13.2730 11 0 0
27.1862 2.4343 13.2740 0 0 0
19.8820 7.5701 13.2760 19 0 0
22.2904 9.0742 13.2770 33 0 0
21.3270 9.7674 13.2780 33 0 0
19.6868 7.7077 13.2790 13 0 0
25.4066 4.1339 13.2820 45 0 0
20.3924 7.2964 13.2840 12 0 0
21.0559 5.3985 13.2850 22 0 0
22.4847 8.5479 13.2880 32 0 0
26.1703 6.3997 13.2890 8 0 0
25.3290 8.4817 13.2900 17 0 0
24.5386 8.2920 13.2910 7 0 0
22.3215 3.9517 13.2920 31 0 0
22.9938 8.2206 13.2930 33 0 0
19.1437 4.2560 13.2940 33 0 0
24.5347 7.4726 13.2950 21 0 0
17.0645 6.4076 13.2960 11 0 0
21.2963 7.7917 13.2970 36 0 0
22.4763 8.4281 13.2980 28 0 0
26.0801 6.4338 13.2990 7 0 0
22.8548 2.7391 13.3000 4 0 0
21.4135 9.8113 13.3010 37 0 0
22.3911 9.0547 13.3020 4 0 0
20.6269 7.2295 13.3030 30 0 0
20.0260 10.1082 13.3040 5 0 0
24.4833 8.2541 13.3060 12 0 0
24.2199 5.5644 13.3070 15 0 0
24.0575 3.1320 13.3080 14 0 0
22.1014 5.1576 13.3100 58 0 0
21.9696 8.9737 13.3110 48 0 0
20.9554 8.3124 13.3120 41 0 0
20.3455 8.9835 13.3130 51 0 0
22.9048 3.7637 13.3140 8 0 0
22.2228 5.2250 13.3150 36 0 0
19.6647 7.7130 13.3160 36 0 0
24.4282 8.2091 13.3170 30 0 0
22.8113 2.8076 13.3180 13 0 0
26.1252 6.4376 13.3190 6 0 0
22.2535 3.8730 13.3200 4 0 0
24.5772 8.0780 13.3210 27 0 0
22.1549 5.2345 13.3220 49 0 0
22.7193 4.7456 13.3230 40 0 0
20.5791 8.8069 13.3240 34 0 0
22.0209 5.1105 13.3250 50 0 0
22.0353 5.0485 13.3260 17 0 0
27.5583 3.1623 13.3270 14 0 0
17.9793 6.4748 13.3280 57 0 0
20.3975 10.0988 13.3290 0 0 0
22.2715 9.0682 13.3300 36 0 0
24.3461 8.3445 13.3310 28 0 0
23.8425 10.8549 13.3320 27 0 0
24.3586 8.3337 13.3340 29 0 0
17.1800 6.2909 13.3350 1 0 0
26.1015 6.4416 13.3360 25 0 0
27.7052 3.1399 13.3370 47 0 0
20.1515 8.9530 13.3380 1 0 0
24.3420 8.2081 13.3390 16 0 0
17.9220 6.2665 13.3400 20 0 0
24.7023 8.4884 13.3410 30 0 0
26.4707 6.6694 13.3430 25 0 0
22.8637 4.7509 13.3440 41 0 0
23.0067 8.3167 13.3450 43 0 0
23.0455 8.3294 13.3460 32 0 0
22.1412 4.9800 13.3470 16 0 0
23.8448 10.9520 13.3480 29 0 0
26.0210 2.9763 13.3490 48 0 0
26.3858 5.8883 13.3500 2 0 0
22.1671 8.9663 13.3510 35 0 0
25.4759 3.9491 13.3520 6 0 0
26.8766 4.0912 13.3530 5 0 0
19.5365 7.7472 13.3550 29 0 0
20.8805 9.0320 13.3560 9 0 0
20.3328 10.1939 13.3570 11 0 0
20.9072 5.3144 13.3580 34 0 0
21.9447 8.9536 13.3590 8 0 0
22.3962 5.0904 13.3600 25 0 0
18.0684 6.2169 13.3610 11 0 0
20.3941 7.4899 13.3620 16 0 0
22.8874 4.8803 13.3630 33 0 0
21.4240 7.8586 13.3650 12 0 0
22.0656 5.2621 13.3660 10 0 0
22.2363 5.1782 13.3670 40 0 0
20.1198 7.5973 13.3680 20 0 0
21.9955 5.2677 13.3710 31 0 0
23.9234 8.6153 13.3720 24 0 0
22.1356 5.0434 13.3730 33 0 0
22.0310 5.1862 13.3740 23 0 0
16.8499 6.8535 13.3750 56 0 0
25.1311 8.5366 13.3760 11 0 0
21.0080 9.0474 13.3770 20 0 0
25.1906 7.3360 13.3780 35 0 0
19.9742 8.9649 13.3790 22 0 0
24.5721 8.0401 13.3800 27 0 0
17.5391 5.9557 13.3810 15 0 0
27.1397 3.0062 13.3820 27 0 0
22.0244 5.3101 13.3840 30 0 0
22.3229 5.2565 13.3850 24 0 0
22.3826 4.8983 13.3860 13 0 0
21.3740 7.8931 13.3870 36 0 0
23.0085 8.4147 13.3880 16 0 0
17.8607 6.1522 13.3890 30 0 0
20.9653 8.7247 13.3900 18 0 0
23.2467 7.4553 13.3910 25 0 0
25.1374 2.0155 13.3920 35 0 0
25.1963 4.0711 13.3930 23 0 0
23.7410 10.8408 13.3940 26 0 0
19.4233 7.5522 13.3950 9 0 0
22.2124 5.0646 13.3960 21 0 0
20.3850 9.0506 13.3970 29 0 0
24.5813 4.9088 13.3980 32 0 0
17.7996 6.6061 13.3990 26 0 0
17.9113 6.2626 13.4000 42 0 0
21.8525 8.9057 13.4010 29 0 0
24.7347 5.0367 13.4020 19 0 0
22.1035 5.1027 13.4030 28 0 0
16.4242 6.9189 13.4040 54 0 0
22.7066 2.5451 13.4050 1 0 0
24.1064 8.1274 13.4070 40 0 0
25.7018 8.1133 13.4080 22 0 0
17.5717 5.9616 13.4090 17 0 0
21.0929 5.3133 13.4100 42 0 0
22.1648 5.1632 13.4110 20 0 0
21.9212 3.6934 13.4120 8 0 0
21.7485 3.8408 13.4130 13 0 0
17.9285 6.3213 13.4140 48 0 0
24.0717 5.2368 13.4150 6 0 0
22.8907 4.8324 13.4170 27 0 0
26.4209 5.9461 13.4180 41 0 0
25.1949 8.5866 13.4190 6 0 0
17.7356 6.3675 13.4200 17 0 0
23.9834 3.5817 13.4210 28 0 0
23.8128 10.6196 13.4220 13 0 0
22.3076 4.8796 13.4230 30 0 0
22.3643 4.9466 13.4240 43 0 0
20.4249 8.8069 13.4250 8 0 0
16.4329 6.8944 13.4260 7 0 0
24.0734 8.6282 13.4270 5 0 0
17.9348 6.3870 13.4280 24 0 0
20.3887 8.7679 13.4290 5 0 0
21.1754 7.7981 13.4300 35 0 0
23.7514 3.9553 13.4320 49 0 0
16.4364 6.8565 13.4330 6 0 0
23.3128 8.2525 13.4340 0 0 0
20.6279 8.3149 13.4350 44 0 0
23.5263 10.4099 13.4360 39 0 0
17.9893 6.2994 13.4370 28 0 0
21.9058 8.9654 13.4380 34 0 0
20.0697 10.0204 13.4390 3 0 0
24.1615 8.0182 13.4400 32 0 0
26.3922 3.4197 13.4410 43 0 0
27.1394 3.5631 13.4420 3 0 0
22.2839 4.9461 13.4430 7 0 0
17.9462 6.3865 13.4440 34 0 0
23.8878 3.5178 13.4450 4 0 0
19.1124 5.0456 13.4460 59 0 0
22.2476 4.9316 13.4470 26 0 0
27.3345 3.4462 13.4480 10 0 0
17.7729 6.4966 13.4490 10 0 0
24.4545 8.3868 13.4500 24 0 0
25.9855 5.3509 13.4510 7 0 0
23.3682 8.6993 13.4520 17 0 0
24.2489 9.6642 13.4530 23 0 0
22.3679 5.0594 13.4540 20 0 0
23.8478 10.6358 13.4550 19 0 0
21.6959 8.3213 13.4560 16 0 0
18.6700 6.2023 13.4570 25 0 0
21.4345 7.8489 13.4580 18 0 0
22.8455 4.8531 13.4600 31 0 0
22.2840 4.8593 13.4610 0 0 0
22.7220 4.8442 13.4620 31 0 0
26.6969 3.0975 13.4630 27 0 0
21.5445 8.7506 13.4640 38 0 0
21.8118 8.7569 13.4650 18 0 0
27.9746 5.2353 13.4660 38 0 0
25.1211 7.2819 13.4670 5 0 0
27.0454 3.0877 13.4680 30 0 0
17.1180 9.5246 13.4690 10 0 0
23.5620 9.2586 13.4700 24 0 0
18.1096 6.6769 13.4710 10 0 0
23.9923 9.9702 13.4720 4 0 0
22.3300 4.9848 13.4730 37 0 0
24.4285 8.2313 13.4740 20 0 0
24.0723 8.1376 13.4750 8 0 0
18.0919 6.4245 13.4760 27 0 0
28.2372 5.5934 13.4770 8 0 0
22.5002 7.9124 13.4780 30 0 0
21.8628 8.7783 13.4790 3 0 0
24.2564 9.8581 13.4800 31 0 0
22.4855 5.1669 13.4810 35 0 0
23.3488 8.8619 13.4820 44 0 0
23.2425 9.3990 13.4830 26 0 0
23.5093 8.1979 13.4840 35 0 0
23.3131 7.4410 13.4850 27 0 0
24.2522 9.6751 13.4860 20 0 0
24.2099 9.7713 13.4870 21 0 0
24.4179 8.2532 13.4880 10 0 0
18.0243 6.5775 13.4890 31 0 0
21.9659 8.7017 13.4900 39 0 0
17.8254 6.6770 13.4920 35 0 0
17.5320 6.3767 13.4930 12 0 0
23.3927 8.8917 13.4940 6 0 0
21.6649 8.0324 13.4950 39 0 0
21.6695 8.2304 13.4980 20 0 0
22.6543 5.1098 13.4990 42 0 0
24.4847 8.2539 13.5000 25 0 0
27.2895 3.0300 13.5010 1 0 0
17.7864 6.5833 13.5020 0 0 0
18.1363 6.4987 13.5030 15 0 0
25.6210 5.9051 13.5040 57 0 0
21.6884 8.0442 13.5050 32 0 0
27.1525 3.0471 13.5070 44 0 0
24.2631 10.3010 13.5080 28 0 0
21.5775 8.1544 13.5090 35 0 0
26.8896 3.3291 13.5100 6 0 0
17.8241 6.5818 13.5110 14 0 0
24.3296 8.1823 13.5120 34 0 0
16.6003 9.1846 13.5130 20 0 0
21.4165 8.2402 13.5140 17 0 0
24.7771 5.4584 13.5150 6 0 0
25.6865 6.7900 13.5160 36 0 0
21.9103 8.1287 13.5170 9 0 0
17.4594 6.2887 13.5180 50 0 0
26.5727 2.4380 13.5190 28 0 0
26.0791 2.4174 13.5200 48 0 0
21.3517 8.4516 13.5210 41 0 0
17.7648 6.4665 13.5220 15 0 0
16.3281 8.2908 13.5230 2 0 0
21.8495 8.7885 13.5240 54 0 0
23.6564 9.8530 13.5250 37 0 0
25.8298 6.7847 13.5260 1 0 0
22.9295 4.8745 13.5270 32 0 0
22.7015 7.4939 13.5280 10 0 0
21.8249 8.0953 13.5290 32 0 0
23.2551 7.1209 13.5300 27 0 0
17.7149 6.3014 13.5310 9 0 0
24.0071 8.4638 13.5330 3 0 0
25.6352 6.0046 13.5340 38 0 0
26.9671 3.7707 13.5350 6 0 0
16.7944 6.7311 13.5380 18 0 0
27.1859 3.4539 13.5390 1 0 0
17.9063 6.4378 13.5400 28 0 0
21.8501 3.7386 13.5410 0 0 0
25.3619 6.4469 13.5420 3 0 0
21.8542 3.6669 13.5430 9 0 0
17.5401 8.3584 13.5440 47 0 0
27.2063 3.5099 13.5450 26 0 0
23.4475 10.2111 13.5460 25 0 0
23.9235 10.3416 13.5470 13 0 0
17.9910 6.3422 13.5480 35 0 0
23.4437 8.1834 13.5490 31 0 0
17.8801 6.5026 13.5500 4 0 0
20.1150 8.4950 13.5510 43 0 0
22.9802 8.5501 13.5530 38 0 0
16.7221 6.7241 13.5540 57 0 0
21.8213 7.9532 13.5560 4 0 0
22.9508 8.5294 13.5570 1 0 0
15.7933 10.3825 13.5590 53 0 0
24.8398 5.6019 13.5600 3 0 0
23.8249 10.1813 13.5610 32 0 0
17.7077 6.2890 13.5620 3 0 0
23.9690 8.7136 13.5630 13 0 0
23.3646 7.3611 13.5640 19 0 0
27.1281 3.3763 13.5650 27 0 0
19.0080 7.8160 13.5660 29 0 0
24.7057 6.9114 13.5670 17 0 0
17.1012 7.5759 13.5690 11 0 0
22.3426 5.1749 13.5700 14 0 0
21.8948 7.9843 13.5710 23 0 0
25.2791 6.4239 13.5720 2 0 0
19.0865 5.6786 13.5730 15 0 0
22.1630 4.0772 13.5740 32 0 0
22.1250 6.1782 13.5750 47 0 0
15.7974 9.9140 13.5760 42 0 0
25.6479 5.4442 13.5770 39 0 0
18.8752 4.6639 13.5780 12 0 0
25.8651 6.9444 13.5790 19 0 0
22.8059 8.7796 13.5810 15 0 0
20.1100 3.1792 13.5820 35 0 0
23.3337 8.5280 13.5840 20 0 0
23.6254 10.2522 13.5850 1 0 0
22.2370 3.9691 13.5860 49 0 0
25.7105 5.9916 13.5870 43 0 0
18.3499 7.4650 13.5880 9 0 0
19.2494 10.3775 13.5890 5 0 0
23.3774 7.0812 13.5900 12 0 0
24.0574 10.5194 13.5910 14 0 0
24.9163 7.6429 13.5930 0 0 0
19.0217 8.0791 13.5940 16 0 0
25.7196 6.8367 13.5960 47 0 0
24.0178 10.4975 13.5970 4 0 0
19.1530 5.0523 13.5980 27 0 0
21.9386 7.8634 13.5990 48 0 0
