-11.6516 7.2428 -0.0699 47 50 42
-17.3190 5.3529 -0.0698 111 96 75
-12.4406 4.1704 -0.0695 18 8 9
-8.4728 8.3889 0.5588 31 27 24
-11.9091 -5.8863 0.5588 45 43 35
-15.7000 -22.2300 -0.0692 34 29 22
-11.4406 6.8615 -0.0688 51 49 37
-12.7568 -7.3291 0.5589 111 115 108
-10.7203 -19.5863 0.5589 62 52 46
-13.3006 -9.4774 0.5590 96 91 89
-14.5575 -21.4419 -0.0686 39 28 21
-15.0677 -21.4136 -0.0685 57 51 46
-16.6286 -21.3359 -0.0679 23 20 14
-15.3320 -11.6513 0.5591 14 10 9
-11.9635 -10.4380 0.5592 94 91 89
-12.2393 7.3778 -0.0679 48 59 46
-13.7636 6.5893 -0.0677 36 37 32
-10.4272 -2.4153 0.5593 34 32 30
-14.9133 -21.7941 -0.0676 39 33 29
-12.1159 -0.6863 0.5593 45 44 36
-11.4677 -12.0322 0.5593 25 25 24
-12.2219 -10.0313 0.5593 70 81 72
-10.5365 -2.9360 0.5594 81 77 71
-12.7068 5.0117 0.5595 61 66 45
-10.4031 4.6051 0.5597 37 54 35
-10.5347 -16.8640 0.5598 56 47 43
-10.3536 -1.5700 0.5599 74 68 61
-12.5826 -13.3029 0.4979 82 78 76
-10.7091 -14.5096 0.5599 254 254 254
-12.5253 -4.6204 0.4980 75 71 67
-11.1500 -17.5832 0.4980 83 76 67
-11.3849 -14.6349 0.4980 233 219 212
-11.4763 -10.5682 0.5599 69 68 67
-14.8893 -8.7291 0.4980 34 32 33
-9.2131 6.0874 0.5599 36 32 21
-11.9885 -5.1185 0.5600 39 44 39
-10.5012 -20.9843 0.5600 90 80 76
-10.2413 0.0790 0.4981 70 62 61
-10.2963 -1.8369 0.5600 100 92 79
-10.5797 -0.1818 0.4981 96 84 79
-14.7120 -0.6640 0.4981 22 21 22
-11.5565 -15.7572 0.4983 167 152 141
-12.4543 -5.6009 0.4983 88 87 87
-11.1675 -20.9020 0.4984 113 96 95
-10.6531 -0.2985 0.4985 53 47 51
-11.9479 -10.0938 0.5600 67 72 64
-12.4855 -9.9767 0.5600 73 72 67
-12.3678 -13.6920 0.4985 113 100 93
-14.2331 -8.3501 0.4986 88 83 78
-12.1969 0.3945 0.4986 74 94 79
-10.1154 -21.8011 0.4986 135 114 100
-10.3675 -21.7813 0.4986 111 92 87
-11.1058 -2.0795 0.4987 97 98 93
-11.2124 -5.5951 0.5602 213 194 193
-11.3307 -18.8233 0.4987 118 113 104
-15.7979 7.9453 0.5602 54 83 62
-11.2965 -5.4216 0.5602 35 32 28
-11.7118 -11.8883 0.5602 82 81 78
-9.3499 6.6575 0.5602 29 33 26
-11.4377 -16.4924 0.4987 56 53 50
-13.2592 -8.4076 0.4987 89 93 79
-8.6696 8.9047 0.5602 45 40 33
-12.1116 -15.3228 0.4987 100 77 64
-10.6106 -14.4641 0.5603 222 201 195
-12.3880 -17.5685 0.5604 53 40 24
-11.1184 -12.8094 0.5604 52 40 31
-11.7156 -4.4046 0.5604 61 55 50
-13.0114 -14.0779 0.4987 152 151 127
-11.7658 -15.0016 0.4988 137 120 107
-12.1365 -15.5558 0.5604 130 115 96
-11.6639 -18.3383 0.4988 77 72 68
-11.4160 -15.7465 0.4988 94 80 74
-11.6826 -16.2888 0.4988 51 43 39
-10.6888 -4.0206 0.5605 14 10 5
-12.7290 -10.6086 0.4989 65 60 56
-11.6297 -10.6930 0.5605 78 80 82
-8.6231 8.3185 0.4989 50 44 36
-13.0220 -8.8966 0.4990 66 65 52
-9.2146 -22.4999 0.5606 100 87 78
-10.6869 -18.3636 0.5606 37 32 27
-10.0576 -0.2996 0.5606 76 77 66
-12.2362 -17.7560 0.4990 34 31 25
-11.3915 -18.8805 0.5607 80 54 44
-11.3689 -20.5644 0.4990 84 75 71
-11.7514 -19.3814 0.4990 76 73 69
-16.1817 -10.0480 0.5607 118 151 123
-14.6475 -8.5532 0.5607 45 43 42
-10.5940 -14.7438 0.5607 158 128 117
-10.6657 -18.7517 0.5607 104 98 92
-17.0468 -14.9412 0.5608 49 63 13
-10.3063 -13.9750 0.5608 182 158 156
-16.9650 -9.5167 0.3530 40 43 29
-17.7620 -9.3794 0.3530 48 51 37
-8.6059 9.4105 0.5608 95 83 76
-11.6794 -12.1278 0.5608 35 33 33
-15.3689 -2.3411 0.3530 45 45 43
-11.1447 1.5161 0.3530 56 56 52
-11.4213 -3.8582 0.5608 54 47 40
-12.6787 -9.6029 0.5608 48 48 47
-18.5457 -10.5834 0.3531 41 48 25
-10.6938 -16.7686 0.5609 51 43 40
-13.7025 -16.0931 0.3531 48 41 34
-12.3882 -7.7565 0.5609 87 87 79
-15.2695 -14.6158 0.3531 76 63 51
-15.5819 -8.3704 0.3532 57 63 51
-14.0022 -5.4975 0.3532 52 48 42
-10.3279 -1.6679 0.5609 63 58 53
-11.1098 -5.1213 0.5610 41 52 17
-14.4435 -3.9968 0.3533 41 42 34
-9.5270 7.7688 0.3533 74 61 56
-11.2051 -4.3730 0.5610 31 33 32
-17.6256 -9.7141 0.3534 56 62 40
-10.3557 -14.0786 0.5611 74 52 56
-12.1776 -4.9110 0.5611 46 49 42
-13.5928 -16.5150 0.3534 41 38 32
-15.0675 7.3735 0.3534 42 59 25
-13.5594 0.3415 0.3534 37 39 37
-9.3722 8.5513 0.5612 194 155 129
-11.4581 -10.7981 0.5612 64 65 64
-11.0180 -12.3814 0.5612 59 52 45
-17.2428 -9.8261 0.3534 77 78 65
-17.7219 -9.1996 0.3535 29 28 22
-14.9161 -3.1454 0.3535 74 80 58
-13.0029 1.4205 0.5613 38 35 37
-15.3917 4.1853 0.3535 66 64 52
-10.8573 -20.4523 0.5613 125 125 134
-11.0878 -0.5124 0.5613 51 61 42
-15.2064 -12.2776 0.3536 81 87 72
-17.8713 -9.2626 0.3536 82 86 71
-9.0944 6.9068 0.5615 138 103 82
-10.7609 -22.5162 0.3536 65 53 45
-14.4402 -12.7705 0.3537 85 81 68
-15.6908 6.7632 0.3537 58 60 48
-9.7989 8.3904 0.3537 34 25 19
-14.6625 -4.8149 0.3537 76 74 68
-17.6439 -6.7567 0.3537 68 68 55
-17.3786 -8.3632 0.3540 21 21 14
-10.4180 -17.1390 0.7242 31 48 5
-12.4246 -20.2292 0.3540 25 27 21
-15.6314 -8.2556 0.3540 48 54 44
-9.5853 -0.9151 0.7242 74 67 55
-15.8682 6.7136 0.3541 75 75 67
-13.6268 -0.5004 0.3541 56 58 36
-9.7965 -4.4884 0.7242 105 94 87
-16.2873 -11.3253 0.3541 12 17 2
-14.4330 -4.9074 0.3541 72 71 68
-11.0453 -6.1799 0.7243 55 70 40
-18.1292 -8.9174 0.3542 61 62 53
-14.7547 -1.7705 0.3542 75 87 71
-13.8280 -18.1162 0.3542 45 37 32
-14.0995 -3.6981 0.3542 65 66 61
-17.3407 -11.4976 0.3543 55 61 44
-14.7337 -14.9000 0.3543 163 143 131
-11.1929 1.0513 0.3543 54 49 50
-11.2975 -0.4688 0.8614 76 91 53
-18.2569 -10.6356 0.3544 33 38 20
-9.0685 -17.3940 0.8614 73 62 52
-9.1236 -1.3274 0.8615 145 119 100
-9.1756 -7.0537 0.8616 154 139 117
-19.1548 -9.8429 0.8617 50 79 22
-14.7903 -14.7671 0.3544 173 154 132
-14.6054 -3.7385 0.3544 82 81 69
-17.2925 -4.3518 0.3545 96 93 84
-17.8196 -9.1731 0.3545 39 39 31
-8.9018 -21.5573 0.8619 41 34 27
-8.8303 4.3011 0.8622 52 46 34
-8.8662 4.5152 0.8622 55 52 42
-9.1168 -15.1543 0.8622 92 74 67
-9.1274 -18.0399 0.8623 96 86 81
-13.0402 -19.1031 0.3546 14 10 9
-14.1864 -2.9766 0.3546 77 73 68
-14.3402 -15.0927 0.3546 164 140 137
-14.3963 -3.4215 0.3546 97 88 76
-9.1108 -12.0967 0.8623 53 40 35
-14.7899 -6.2786 0.3546 110 114 100
-9.2475 -5.3877 0.8624 115 105 94
-9.0757 -0.8306 0.8625 72 55 42
-17.6885 -8.7423 0.3546 137 125 100
-13.6276 -16.0247 0.3546 59 52 46
-14.3070 -13.3422 0.3546 177 127 96
-9.0476 -17.7094 0.8625 103 95 85
-9.0934 -14.0892 0.8629 60 49 38
-9.0940 -19.4724 0.8631 105 88 75
-8.9972 -0.2968 0.8633 145 128 111
-16.0338 -11.7921 0.3547 64 73 45
-14.5308 -14.1741 0.3547 192 170 149
-17.9994 -9.9943 0.3547 82 84 58
-10.4192 3.4431 0.3547 38 44 43
-9.0961 -12.4971 0.8634 137 118 107
-10.8271 3.1134 0.3547 29 37 29
-11.2089 1.2849 0.3547 78 84 88
-9.0905 3.7722 0.8636 64 62 54
-9.2015 -19.3365 0.8639 121 102 90
-9.1172 4.6756 0.8639 28 46 30
-15.6726 -9.6171 0.3547 72 64 55
-16.5746 -4.2355 0.3548 54 54 44
-15.4651 5.8352 0.3548 89 92 83
-10.4415 3.5911 0.3548 45 43 38
-8.1023 8.7024 0.8641 4 2 1
-10.8431 7.2885 0.3549 30 31 21
-13.8410 0.4617 0.3549 35 37 36
-9.0129 -17.5993 0.8641 78 83 76
-9.4396 4.7866 0.8644 36 59 43
-8.9957 -0.8977 0.8644 88 68 55
-9.3410 -7.6856 0.8644 153 128 101
-10.2718 3.4013 0.3549 77 79 65
-14.3433 -4.7062 0.3549 57 60 51
-15.3121 -2.2422 0.3550 69 68 68
-14.9368 -13.2779 0.3551 65 59 43
-15.2456 6.1151 0.3551 81 75 71
-9.0938 -12.9429 0.8644 60 49 42
-9.2376 -7.7455 0.8645 169 156 148
-9.0047 2.1547 0.8646 82 76 59
-16.6957 5.6509 0.3551 51 50 33
-10.9089 1.3214 0.3551 119 119 121
-9.2399 -11.2060 0.8646 118 96 85
-9.0782 -13.5009 0.8649 65 54 46
-8.9413 -21.2641 0.8649 68 50 34
-9.0670 -19.6734 0.8650 108 80 63
-12.5523 -20.4660 0.3552 110 97 91
-9.1997 5.6398 0.3552 93 82 80
-18.6065 0.5164 0.3552 42 62 44
-18.0211 -9.7321 0.3552 80 81 66
-12.4277 2.9805 0.3552 34 37 26
-10.4580 4.5944 0.8651 38 62 49
-9.1872 -11.0835 0.8651 161 149 139
-9.2582 -10.2984 0.8654 245 245 245
-9.2384 -5.6352 0.8655 77 75 68
-8.9800 2.2576 0.8657 98 86 67
-9.3865 -2.5919 0.8659 122 113 103
-9.0909 -9.2442 0.8662 122 103 89
-9.0422 -9.6628 0.8662 108 95 80
-8.3126 7.4861 1.2655 16 11 7
-9.4196 -9.6017 0.8663 111 73 54
-11.6950 3.2970 0.8667 7 52 2
-9.2599 -3.7492 0.8672 85 77 64
-8.0157 8.5651 0.8673 51 42 37
-9.1766 -8.0042 0.8676 75 72 62
-8.4642 -4.2453 1.2660 132 114 96
-9.5302 6.2888 0.8677 47 72 52
-9.0188 -19.5762 0.8679 92 80 75
-8.6240 5.2913 0.8681 24 22 15
-9.3122 -4.1108 0.8681 141 131 124
-9.1361 -18.7289 0.8682 54 46 35
-7.4031 8.5031 1.2661 68 54 45
-8.7245 -2.6350 1.2661 54 47 35
-9.2620 -3.6348 0.8682 43 39 33
-8.0212 8.7782 0.8685 125 107 91
-9.1675 -10.3545 0.8686 234 228 228
-8.4685 -6.0100 1.2662 95 86 77
-9.1590 -16.1279 0.8686 142 122 109
-9.3319 -18.6076 0.8686 86 77 75
-7.9910 8.4666 0.8690 59 51 45
-8.3850 -6.8925 1.2664 72 64 57
-8.5765 -1.7910 1.2665 71 59 48
-8.5875 1.3179 1.2666 81 102 56
-9.2338 -8.7780 1.2667 53 95 63
-10.0235 4.0427 0.8690 26 66 45
-9.0733 -17.0771 0.8690 126 123 124
-8.5868 -21.9573 0.8692 105 87 72
-16.5935 -5.1716 0.8693 65 73 60
-7.6711 7.6098 1.2669 42 38 36
-7.9252 -21.4262 1.2670 68 55 38
-8.3970 -8.5313 1.2670 138 131 120
-8.2050 -13.9245 1.2674 78 72 66
-7.6439 8.4543 1.2676 60 59 39
-7.8976 -20.7211 1.2679 38 32 27
-8.2329 -12.7046 1.2681 47 45 40
-9.0419 -9.9822 0.8693 173 149 126
-9.5315 4.9368 0.8695 93 94 78
-8.7113 -3.3057 1.2683 117 112 96
-7.3471 8.6001 1.2683 27 18 10
-8.1871 -18.8929 1.2684 71 59 47
-9.0881 -0.0226 0.8696 182 165 140
-8.9578 2.9773 0.8697 16 12 5
-9.2299 5.8780 0.8697 27 39 25
-8.0072 6.4950 1.2687 35 29 25
-8.1153 -15.1869 1.2688 72 67 58
-9.0622 -14.9352 0.8699 69 56 45
-8.9344 2.3793 0.8701 102 87 70
-9.3974 0.6826 0.8702 91 80 77
-7.8366 10.2274 0.8702 96 81 67
-8.1751 -12.3074 1.2689 55 47 36
-9.2826 -6.3148 0.8705 85 74 67
-9.1403 -16.7127 0.8707 83 65 53
-9.2982 -2.1786 0.8707 53 49 46
-9.2511 -11.3194 0.8708 96 81 75
-7.3227 9.0377 1.2695 48 34 24
-8.3454 -7.2009 1.2696 86 77 64
-9.2055 -13.6574 0.8715 81 68 63
-9.0289 -0.7296 0.8717 124 111 101
-11.2441 -11.5724 1.2697 98 139 98
-7.9683 5.3745 1.2697 49 42 33
-9.2808 -18.2871 0.8719 45 37 28
-8.9074 6.3951 0.8721 51 64 38
-9.2201 -7.8537 0.8721 104 85 72
-12.2602 4.6778 0.8721 35 49 31
-7.7404 6.6217 1.2698 47 42 37
-8.1442 -17.5334 1.2699 48 41 35
-7.9650 -20.4553 1.2701 103 95 86
-9.1601 -8.2255 0.8722 75 66 54
-9.1463 -14.4529 0.8724 125 112 101
-11.5438 9.8322 0.8725 100 137 86
-9.1380 -13.9415 0.8725 107 97 87
-9.1685 -18.3497 0.8726 117 104 96
-8.5135 -2.5086 1.2702 39 31 20
-8.2182 -14.1896 1.2702 68 59 46
-9.1454 -9.4647 0.8726 64 62 41
-8.5940 -2.8290 1.2706 75 66 57
-7.6870 6.7377 1.2707 71 62 54
-8.0952 -18.3299 1.2707 97 91 86
-8.7089 7.5273 1.2709 27 29 24
-9.2108 -1.6664 0.8728 81 68 56
-9.0598 3.0554 0.8730 102 88 71
-8.6453 -5.6807 1.2710 79 96 56
-8.5481 -3.7142 1.2712 46 41 29
-7.9097 4.9922 1.2717 53 42 33
-8.3155 -0.4621 1.2720 78 62 51
-8.3379 -8.7346 1.2722 114 91 84
-8.4548 -5.5194 1.2723 41 38 35
-8.3122 1.5459 1.2726 18 34 9
-15.3863 -12.4640 0.3166 53 53 44
-8.7078 -2.9257 1.2726 58 50 45
-8.6476 -2.5666 1.2727 136 121 106
-17.8772 -13.2208 0.3166 33 49 14
-8.0336 -16.3189 1.2728 98 86 74
-8.1403 -18.7851 1.2729 42 36 32
-8.2677 1.8076 1.2729 30 44 16
-8.2323 -9.9610 1.2729 128 109 92
-8.2760 -4.6508 1.2730 13 14 8
-7.7684 5.5077 1.2731 61 51 44
-7.3343 8.7227 1.2731 78 64 51
-8.2972 -8.9947 1.2733 91 78 66
-8.4688 -6.3829 1.2734 102 92 80
-18.7150 -5.1333 0.3167 69 71 53
-11.1909 3.1247 0.3167 108 117 115
-15.1221 6.6688 0.3167 46 41 37
-8.9447 1.3078 0.8731 153 124 101
-14.9898 -4.1204 0.3168 55 55 49
-9.0335 -15.9727 0.8731 47 39 27
-9.0468 -14.2640 0.8732 61 51 37
-9.1820 -7.1617 0.8733 130 117 102
-9.0793 -11.7140 0.8735 91 70 62
-9.2984 6.1261 0.8735 57 70 42
-16.2266 -12.5482 0.3168 104 105 74
-17.3633 -12.9937 0.3169 36 39 15
-9.0250 -15.0546 0.8735 62 49 39
-9.1048 -20.0165 0.8737 98 94 98
-8.2890 -22.8124 0.8738 41 33 25
-15.4049 -13.8342 0.3169 32 28 24
-11.3194 3.2654 0.3169 67 72 66
-9.3102 -2.3779 0.8739 58 50 41
-15.4840 -6.0479 0.3169 61 62 56
-13.2619 3.4945 0.3169 47 86 54
-16.5607 -11.9669 0.3170 65 77 44
-16.0809 -8.1707 0.3170 28 25 20
-12.4660 2.6419 0.3170 96 99 92
-14.9507 -3.3002 0.3170 58 54 47
-16.7655 -11.5263 0.3170 218 199 193
-17.2818 -8.7933 0.3170 61 64 54
-17.7849 -7.2919 0.3552 96 98 88
-18.1691 -10.5593 0.3170 84 80 67
-13.2973 1.4982 0.3170 66 86 76
-13.5603 -17.7865 0.3552 47 43 38
-17.6427 -10.1357 0.3553 69 69 58
-17.4039 -13.4074 0.3171 74 86 30
-15.3163 -12.7944 0.3171 49 52 35
-15.4353 -14.3464 0.3171 69 64 53
-13.8974 -5.2688 0.3553 23 21 19
-17.6563 -12.4827 0.3171 99 112 83
-15.1628 -6.5103 0.3172 125 115 105
-17.0593 -10.9483 0.3172 105 103 94
-11.4536 -22.2831 0.3553 55 57 41
-14.1734 0.1866 0.3553 80 103 74
-14.1644 -4.8118 0.3554 80 82 77
-14.8006 4.6877 0.3555 67 68 63
-17.7102 -10.0291 0.3556 85 88 74
-9.1890 -23.2666 0.3172 120 113 102
-16.8890 -9.4106 0.3173 46 51 28
-18.1062 -9.4635 0.3556 98 100 78
-18.5121 -6.7920 0.3556 51 51 40
-14.3254 -7.6616 0.3556 80 91 76
-14.6592 -3.8270 0.3556 100 98 91
-14.8168 -13.3672 0.3173 111 88 70
-13.9008 -18.6315 0.3556 85 81 67
-17.0743 -10.4176 0.3556 87 89 76
-12.4443 2.5370 0.3173 49 53 45
-10.2632 4.5031 0.3173 52 48 39
-17.8469 -11.4135 0.3557 47 61 34
-9.0247 -23.3733 0.3557 126 94 77
-10.6007 3.6155 0.3558 33 35 27
-14.4045 -4.4457 0.3558 45 46 39
-14.9113 -14.5562 0.3558 85 66 54
-16.3144 -5.2652 0.3174 40 36 30
-15.7876 -4.0335 0.3174 78 90 53
-17.5970 -15.2405 0.3175 56 60 21
-16.6178 -4.1063 0.3175 57 58 48
-16.9458 -4.5042 0.3175 60 67 58
-15.2681 6.5841 0.3558 66 64 55
-15.3794 6.3124 0.3559 102 99 91
-15.5471 -6.4946 0.3175 41 45 37
-17.4265 -9.0966 0.3559 77 82 68
-14.0366 -0.3139 0.3559 98 159 88
-15.1344 7.9187 0.3560 38 38 30
-14.8915 -7.2235 0.3560 21 21 20
-16.0540 -8.6003 0.3560 86 97 79
-12.9909 -19.2054 0.3560 91 89 84
-16.5569 -11.7639 0.3561 107 105 78
-10.2715 3.5028 0.3561 52 65 58
-14.6542 -12.9774 0.3175 24 22 16
-11.4063 1.6899 0.3176 109 116 126
-15.8213 -12.2225 0.3176 45 51 37
-16.1910 5.4987 0.3561 31 33 17
-18.1126 -9.6804 0.3561 69 70 53
-13.7977 -16.0579 0.3561 97 90 82
-17.2155 -10.0303 0.3561 49 47 35
-14.2216 -17.6304 0.3176 53 53 46
-14.5943 -13.7324 0.3561 62 55 45
-14.6630 -12.3820 0.3562 53 57 46
-13.2545 3.6090 0.3176 67 89 73
-14.7006 -12.7849 0.3562 49 45 35
-15.4063 5.0114 0.3176 74 68 65
-14.3943 -19.1478 0.3177 101 91 79
-12.8877 1.9251 0.3177 62 68 68
-15.3383 -13.0467 0.3177 77 77 69
-11.0996 0.9387 0.3562 72 70 67
-11.2774 2.3993 0.3178 50 54 52
-16.0704 -12.2173 0.3563 59 62 45
-17.3841 -9.9232 0.3563 76 72 60
-17.5555 -11.3940 0.3563 36 43 21
-15.4068 -13.7068 0.3178 71 58 53
-11.0500 2.9591 0.3178 74 78 69
-10.8202 2.2472 0.3563 70 66 62
-17.1356 -11.5078 0.3563 29 27 15
-17.8487 -4.2782 0.3178 91 92 72
-15.9437 -11.1537 0.3563 54 63 42
-13.7835 -17.9968 0.3563 97 95 93
-14.2168 -13.2851 0.3564 91 73 59
-13.9178 -16.5606 0.3178 52 50 48
-14.1042 -13.3063 0.3564 87 66 55
-17.5053 -11.9024 0.3179 60 78 35
-14.3429 -16.0156 0.3179 120 111 93
-11.5542 1.1411 0.3564 51 49 38
-13.8751 -18.2909 0.3179 63 56 48
-14.2224 -5.6745 0.3564 70 60 50
-14.8093 -12.5413 0.3565 62 52 34
-15.3101 -7.3827 0.3180 47 48 43
-17.0046 -7.5950 0.3180 56 61 39
-13.4236 0.9736 0.3181 110 113 107
-14.6313 -18.3684 0.3181 28 26 19
-14.6245 -13.6243 0.3565 37 30 23
-9.0834 8.8081 0.3566 26 19 11
-14.2796 -18.7830 0.3181 58 58 37
-17.9337 -9.9027 0.3566 76 79 69
-14.7862 5.3706 0.3181 76 71 72
-9.6810 6.1820 0.3181 86 69 60
-15.4747 -10.5661 0.3566 60 62 49
-14.1301 -3.9632 0.3566 47 48 43
-16.7018 -4.1819 0.3181 62 58 46
-15.2589 -3.1730 0.3182 54 57 51
-17.3005 -12.3562 0.3182 180 182 119
-14.7837 -14.6547 0.3567 147 129 123
-15.9160 5.7499 0.3183 59 84 67
-15.4461 0.1289 0.3183 82 102 89
-16.1684 6.7797 0.3184 98 91 88
-14.6204 -11.6054 0.3567 60 56 50
-17.8258 -6.7679 0.3184 68 70 48
-10.7668 2.1462 0.3184 121 117 105
-13.9896 -1.4458 0.3567 31 21 17
-14.2360 6.2373 0.3184 39 52 36
-15.4249 -2.4427 0.3567 64 67 59
-13.6444 -18.8763 0.3567 66 60 52
-10.0190 6.7407 0.3184 37 30 27
-15.5367 -2.7566 0.3184 31 36 28
-15.6793 -15.0992 0.3185 137 156 113
-17.5139 -13.9711 0.3185 25 32 12
-14.6834 5.2125 0.3186 84 79 78
-15.4244 -2.8489 0.3186 51 54 47
-15.1827 -14.3426 0.3567 94 77 64
-14.8638 6.0951 0.3186 76 74 69
-11.4060 3.1715 0.3187 75 79 70
-13.9414 0.8281 0.3568 37 45 33
-15.4116 -12.6612 0.3188 40 48 30
-12.2141 -21.2311 0.3568 65 54 50
-17.1281 -11.2668 0.3568 38 35 30
-10.2621 3.1151 0.3568 65 68 62
-17.4006 -9.6864 0.3568 89 84 74
-18.5536 -10.3728 0.3569 43 48 31
-13.2401 2.2655 0.3188 20 21 20
-15.7828 -9.6517 0.3188 53 47 38
-14.3364 -15.6465 0.3569 64 60 49
-14.6123 -13.5058 0.3569 193 170 164
-14.7006 5.4299 0.3188 62 59 58
-15.0148 -7.2024 0.3189 38 36 29
-13.5294 -0.1758 0.3569 52 56 46
-15.0390 -8.1394 0.3189 58 53 49
-15.0639 6.7938 0.3190 92 92 84
-16.5124 -12.1842 0.3190 90 89 65
-10.6540 2.1592 0.3570 48 48 41
-16.7777 -12.0120 0.3570 76 82 47
-15.3088 -9.3069 0.3190 39 38 36
-15.1613 -13.2587 0.3190 120 107 97
-13.0305 3.0491 0.3191 43 45 41
-16.8452 -4.4788 0.3191 51 50 44
-15.0564 -14.0385 0.3570 108 87 64
-14.1823 -3.6351 0.3570 75 78 72
-15.1695 -14.0744 0.3571 108 85 73
-14.8588 -11.5988 0.3571 50 45 38
-15.6004 -3.6117 0.3191 111 116 104
-14.5705 5.1352 0.3191 61 58 56
-17.2955 -7.7620 0.3191 179 179 167
-14.6901 -1.0423 0.3192 66 69 66
-14.8332 -13.8287 0.3571 166 141 128
-16.7915 -11.7700 0.3573 102 109 65
-15.6276 -11.9719 0.3193 59 56 42
-9.4249 8.7951 0.3193 63 55 49
-9.5886 6.5335 0.3193 61 50 42
-14.8079 -2.9853 0.3193 67 75 63
-10.8766 1.7293 0.3573 53 47 43
-13.7710 -4.5110 0.3574 74 75 72
-11.7643 1.0640 0.3574 106 104 105
-9.1206 9.2285 0.3574 13 7 3
-17.4342 -15.1472 0.3193 33 41 11
-14.7908 -3.1667 0.3194 102 101 88
-15.3893 3.3787 0.3194 11 25 15
-17.9525 -6.4714 0.3195 47 45 35
-13.5045 -18.9689 0.3574 73 63 55
-14.7117 -6.3427 0.3574 78 73 53
-17.3344 -11.8435 0.3575 145 167 98
-18.6939 -6.4790 0.3575 57 63 42
-13.1565 3.6261 0.3575 21 27 26
-16.8477 -21.2544 0.3195 150 141 106
-18.0173 -9.2266 0.3575 77 75 63
-13.9120 -4.5104 0.3575 53 57 49
-10.6701 6.9099 0.3576 60 85 84
-17.4855 -11.8101 0.3576 48 59 30
-15.2392 5.1455 0.3576 59 58 48
-13.8864 -18.7723 0.3576 64 57 45
-18.2279 -9.5810 0.3576 55 55 40
-17.4279 -8.5151 0.3577 100 93 83
-14.3993 -3.7711 0.3577 59 62 52
-15.8329 -10.9352 0.3577 37 54 37
-16.7752 -10.0026 0.3195 81 87 54
-15.1579 7.5267 0.3195 52 48 43
-14.7883 6.0199 0.3577 42 43 35
-17.6066 -9.5993 0.3577 74 80 61
-15.2822 -12.4854 0.3196 88 96 86
-14.0377 -17.6637 0.3196 41 36 27
-13.9913 0.5129 0.3578 17 27 22
-14.5791 -17.8699 0.3196 88 90 80
-17.7368 -6.8024 0.3578 63 65 40
-19.1793 -4.8591 0.3578 58 67 45
-17.7742 -11.4893 0.3579 48 55 35
-17.4086 -8.6309 0.3579 53 57 42
-15.7534 -0.3779 0.3196 92 105 78
-17.0201 -11.2995 0.3196 164 157 147
-10.9398 7.5696 0.3196 30 41 27
-15.0211 -3.1356 0.3197 58 65 39
-10.3873 3.7549 0.3580 8 10 9
-14.9012 -8.2459 0.3580 93 88 84
-18.5337 -12.9702 0.3580 86 106 58
-13.6097 0.2404 0.3580 29 35 28
-13.7651 -16.5544 0.3580 118 118 101
-18.0345 -5.3293 0.3581 53 57 46
-13.6606 -16.2753 0.3581 80 72 65
-15.5426 -2.5378 0.3581 24 23 19
-15.8176 5.7185 0.3197 71 98 77
-15.4874 -12.4167 0.3197 48 47 40
-14.7971 4.9020 0.3581 55 61 57
-12.1826 2.8587 0.3581 28 32 26
-15.1820 -12.9027 0.3197 32 33 26
-17.7928 -9.9211 0.3582 90 93 85
-13.4553 -18.0047 0.3582 50 47 45
-15.0481 -3.3548 0.3197 72 73 63
-13.5711 -18.0086 0.3583 41 37 34
-17.7793 -7.5490 0.3198 70 75 55
-13.4904 0.8918 0.3199 31 32 31
-12.7687 -20.2936 0.3199 81 76 70
-14.7128 -6.1621 0.3583 60 58 43
-14.5767 -0.5940 0.3583 32 37 31
-17.2368 -8.1998 0.3583 51 49 38
-15.0706 -14.3249 0.3584 178 149 129
-17.4685 -12.5177 0.3584 106 115 71
-17.6407 -9.4974 0.3584 48 55 35
-15.4565 -11.8042 0.3585 95 93 77
-13.8898 -17.9508 0.3585 41 36 30
-10.7923 2.3795 0.3585 108 111 111
-14.0892 -15.8843 0.3585 74 66 56
-15.3561 5.2351 0.3585 79 89 79
-18.0004 -9.6325 0.3586 103 105 82
-9.8268 -1.1565 0.7243 66 58 59
-17.2133 -7.6897 0.3586 132 139 125
-17.3025 -10.1306 0.3587 130 125 116
-9.9977 -9.8677 0.7243 53 51 48
-15.8901 -9.8168 0.3587 76 76 55
-11.2368 -22.1239 0.3588 81 67 58
-17.5800 -11.0342 0.3588 59 62 46
-14.8808 5.1831 0.3588 54 52 50
-17.5020 -11.5118 0.3588 56 62 42
-9.7190 -13.1502 0.7244 96 84 77
-12.5954 -8.9910 0.7244 53 72 50
-13.6419 -17.4870 0.3589 47 41 35
-9.3359 2.0826 0.7244 94 98 83
-16.8105 -9.9046 0.3589 77 88 65
-9.4423 -20.7838 0.7244 128 113 98
-14.7741 -4.4770 0.3589 49 50 41
-9.7734 -4.8147 0.7244 58 54 51
-8.8613 7.8562 0.7244 119 138 94
-9.7331 -18.5578 0.7245 109 109 112
-9.7163 -5.6620 0.7245 48 35 29
-9.7940 -20.3565 0.7246 97 97 105
-12.3949 -10.8539 0.5615 47 49 44
-9.6279 -1.2650 0.7246 27 24 22
-11.3067 -5.6662 0.5615 63 57 47
-9.6214 -1.5097 0.7247 51 44 43
-12.0834 -5.0423 0.5615 55 55 45
-10.5310 -17.6556 0.5616 76 62 46
-10.8307 5.2648 0.7251 32 63 50
-12.0006 -6.2831 0.5616 31 39 34
-11.8789 -7.7207 0.7252 64 70 50
-10.5070 -14.9207 0.5616 107 102 94
-11.5306 -10.9712 0.5617 49 45 40
-9.6331 -18.3949 0.7253 97 89 90
-10.6301 -14.6369 0.5617 217 192 170
-12.2038 -12.7542 0.5617 57 71 61
-11.4468 -14.5509 0.5618 199 212 108
-10.4333 -15.8462 0.5618 23 20 18
-12.0332 -0.8835 0.7254 30 30 30
-11.5751 -4.2896 0.5618 77 69 62
-11.5319 -5.8576 0.5618 56 53 56
-9.8428 -8.3101 0.7255 91 84 74
-9.8327 -0.2156 0.5619 48 39 32
-9.2633 3.6296 0.7255 29 35 27
-12.3268 -9.8733 0.5619 83 89 84
-10.6844 -3.1961 0.5621 69 65 63
-11.0042 -12.7581 0.5621 167 138 115
-12.4148 -7.3938 0.5621 54 46 39
-12.2139 -8.4171 0.5621 184 157 141
-16.7662 -6.2804 0.5621 0 255 0
-11.5770 -4.1217 0.5622 101 101 98
-12.1192 -9.8505 0.5622 109 111 112
-12.2088 -6.5334 0.5622 34 38 33
-10.4259 0.0968 0.4990 66 58 54
-11.9258 -5.3326 0.5622 38 42 36
-9.8103 0.2216 0.5622 85 67 57
-12.9054 -9.4235 0.5622 37 36 35
-13.7596 -8.5550 0.4990 123 110 98
-11.6109 -19.9882 0.4991 81 76 69
-9.6388 0.5208 0.5623 96 82 71
-10.7206 -16.6613 0.5624 89 77 73
-13.2040 -10.0319 0.4991 130 115 109
-12.3393 -3.6539 0.4991 115 110 109
-11.4161 -19.5881 0.4991 82 75 70
-11.7340 -11.6287 0.5624 59 58 57
-10.4686 -0.7899 0.4991 55 51 41
-11.9939 -9.7067 0.5625 79 78 79
-11.3550 -17.9288 0.4991 53 50 42
-8.4258 -23.2617 0.5625 111 103 97
-10.7255 -19.4781 0.5625 71 51 39
-13.6260 -10.5440 0.4991 72 72 65
-9.6569 8.8187 0.4991 116 139 95
-12.2447 -8.6584 0.5625 154 173 41
-11.0136 -20.6680 0.5626 79 65 61
-12.6082 -0.7643 0.4992 26 33 28
-11.7228 -13.3602 0.4992 66 60 60
-12.1318 -5.5730 0.5626 61 68 55
-11.7108 -10.7908 0.5626 60 57 57
-12.8702 -11.0780 0.4993 52 58 46
-13.4561 -9.9816 0.4993 75 73 67
-12.4350 -10.0910 0.5626 81 80 77
-12.6313 -1.6848 0.5626 64 88 72
-15.4665 -7.0317 0.4993 59 71 61
-11.5608 -16.5468 0.4993 66 63 57
-12.1821 -14.6938 0.4994 115 97 83
-12.0121 -4.5817 0.5627 70 67 60
-10.7717 -13.0560 0.5627 115 106 87
-12.0382 -14.2194 0.4994 75 58 51
-12.1476 -19.2765 0.4994 78 74 72
-12.3615 -6.8139 0.5627 67 66 59
-11.3493 -17.2918 0.4995 86 87 82
-10.7864 -21.3828 0.4995 100 82 74
-12.0369 -19.2849 0.4995 42 35 31
-11.5671 -6.7470 0.5627 91 85 78
-11.0090 -3.2609 0.5628 35 30 23
-10.6480 -14.9265 0.5628 70 53 44
-11.0794 -1.6817 0.4995 44 41 36
-10.6359 -2.1125 0.5628 2 5 9
-12.7229 -9.3272 0.5628 37 36 36
-8.5739 8.1419 0.5628 84 75 68
-12.6069 -6.5921 0.4995 47 50 38
-8.9863 8.5161 0.4996 24 19 25
-11.6526 -15.0449 0.4996 127 107 92
-12.6075 -9.3552 0.5629 35 33 32
-14.3883 -11.1529 0.5629 72 93 64
-10.8481 -3.3561 0.5629 71 66 66
-12.8739 -9.6751 0.5629 74 75 68
-11.7259 -13.9697 0.5630 185 162 153
-11.3756 -3.3090 0.4996 49 48 44
-12.8288 -10.8183 0.4996 39 40 28
-10.7040 -19.7004 0.5630 67 48 38
-8.5077 8.7588 0.5630 75 69 57
-11.8847 -12.2435 0.5631 56 75 46
-13.6423 -9.4955 0.4996 118 114 96
-13.1246 -0.5527 0.4997 23 22 22
-11.4748 -12.2873 0.5631 82 76 70
-11.7929 -6.0130 0.5632 51 52 45
-12.4146 0.1733 0.4997 36 35 37
-11.4644 -19.8345 0.4997 61 53 47
-10.4626 -16.7593 0.5632 102 94 97
-9.5754 4.2987 0.4998 62 59 50
-12.3073 -9.6933 0.5633 101 103 102
-10.4564 -14.1214 0.5633 57 40 30
-11.6145 -17.6609 0.4998 14 13 13
-11.0810 -3.6857 0.5633 22 20 15
-10.9742 -5.0410 0.5633 101 95 95
-11.3546 -12.8647 0.5634 136 123 116
-12.2233 -12.3261 0.4999 17 17 15
-13.3805 -10.0577 0.5000 36 31 28
-13.7946 -10.8606 0.5000 56 56 42
-12.0813 -9.6257 0.5634 70 68 66
-13.1663 -10.3250 0.5001 134 119 113
-11.3888 -15.3472 0.5001 181 165 160
-12.3025 -13.5960 0.5001 70 64 48
-12.1705 -9.7179 0.5634 33 31 28
-13.6832 -11.8354 0.5634 46 46 43
-10.6905 -15.9819 0.5634 60 46 38
-15.5854 8.3714 0.5001 54 71 50
-12.6146 -10.7079 0.5001 54 50 46
-14.5719 -17.1853 0.5001 78 107 78
-12.1203 -3.2787 0.5002 80 75 75
-10.5877 -21.5656 0.5002 69 55 50
-10.7037 -0.2087 0.5002 67 59 56
-16.8543 -22.1931 -0.0676 30 24 15
-11.3645 0.3722 0.5002 32 66 42
-12.5280 0.1364 0.5003 65 65 64
-12.5884 -4.1209 0.5003 66 65 62
-11.7089 -1.7977 0.5003 82 83 82
-11.6656 -18.9622 0.5004 117 119 110
-12.2067 -3.6778 0.5004 80 84 80
-14.4346 -21.6873 -0.0675 43 29 20
-10.0123 1.3488 0.5005 64 63 52
-13.5322 -14.7229 0.5005 144 128 119
-11.1507 -14.9698 0.5005 165 128 120
-11.5093 -19.6697 0.5006 90 75 67
-17.6268 4.7648 -0.0674 132 118 110
-9.8872 4.1384 0.5006 26 33 27
-13.2973 -8.7359 0.5007 51 50 45
-16.0788 -21.5051 -0.0668 72 62 48
-12.8266 -10.9221 0.5007 62 62 53
-10.6422 -1.2326 0.5007 119 122 130
-17.3465 4.4926 -0.0666 32 25 22
-13.9238 -8.4402 0.5007 98 100 89
-11.5614 -18.1205 0.5007 71 66 63
-12.4539 -23.0492 -0.0665 91 86 68
-11.3420 -14.2989 0.5008 161 135 123
-10.6128 -21.3523 0.5008 148 122 110
-11.4971 6.9628 -0.0665 103 101 83
-16.5559 -22.4351 -0.0663 54 47 37
-15.8560 -22.0741 -0.0660 53 47 37
-15.2380 -21.4247 -0.0658 44 37 29
-10.5843 -0.7967 0.5008 45 42 37
-17.5966 -6.9455 0.5008 80 93 65
-15.1129 -21.3221 -0.0655 46 37 29
-16.4453 9.1926 -0.0654 34 37 21
-13.7611 8.5515 0.5008 43 58 20
-11.7189 -16.3980 0.5008 48 43 38
-12.3940 -13.5206 0.5008 56 50 40
-18.1744 3.4251 -0.0651 15 15 15
-16.3681 -22.3335 -0.0648 91 75 65
-12.3356 -14.0491 0.5009 159 104 80
-11.4889 -15.3399 0.5009 189 174 167
-12.3652 -13.7953 0.5009 78 63 57
-15.5598 7.6209 0.5010 41 65 28
-13.2643 -11.7643 0.5010 50 48 35
-11.5112 -17.5683 0.5010 47 40 37
-14.2563 -21.7123 -0.0647 53 42 32
-12.2686 -23.0929 -0.0645 63 51 45
-13.7069 -22.3234 -0.0644 82 74 73
-11.7970 -19.7405 0.5010 62 54 51
-11.4211 -16.7690 0.5011 87 84 83
-11.7371 -13.2591 0.5011 53 44 37
-10.1699 0.3063 0.5011 57 54 53
-16.1344 -22.0717 -0.0642 49 42 33
-12.7115 -22.9403 -0.0642 72 70 59
-13.2467 -8.3081 0.5011 64 58 49
-10.9852 6.3359 -0.0641 74 68 57
-11.0152 6.4482 -0.0641 47 41 28
-17.5663 4.0852 -0.0640 30 30 24
-15.8284 -21.8740 -0.0639 60 53 42
-17.5910 -20.8242 -0.0634 50 42 36
-16.4164 -22.2220 -0.0633 52 42 32
-12.1251 -2.6589 0.5012 43 44 24
-13.3286 -11.0229 0.5012 105 107 102
-11.6897 -15.8907 0.5012 103 88 78
-13.0528 -22.5551 -0.0633 93 78 67
-15.0105 -22.1386 -0.0629 60 65 53
-19.1682 1.9301 -0.0629 93 93 100
-15.2871 -21.5159 -0.0628 46 44 37
-12.4917 -4.1676 0.5012 74 70 66
-10.2488 -21.7475 0.5012 74 53 42
-13.7580 -11.8741 0.5012 95 109 75
-12.2323 -13.8453 0.5012 54 40 32
-14.8127 -21.1887 -0.0627 43 39 31
-13.9474 -22.2566 -0.0626 48 39 31
-12.1840 -0.3748 0.5013 30 24 25
-13.1155 -7.3723 0.5013 47 54 42
-17.5117 3.9855 -0.0620 89 97 95
-10.5031 -21.7045 0.5013 92 76 70
-13.2733 -22.6219 -0.0620 116 102 94
-18.0340 3.3030 -0.0620 82 78 75
-11.4265 -19.7347 0.5013 36 31 30
-14.5233 -21.5501 -0.0619 67 56 51
-12.2517 7.5677 -0.0619 37 33 27
-11.9190 -19.2433 0.5013 71 64 59
-13.9558 6.9868 -0.0618 26 27 22
-11.9892 -16.1755 0.5014 108 99 90
-17.7016 3.2552 -0.0615 55 73 40
-14.1016 -21.8175 -0.0615 98 85 76
-10.9707 -1.5596 0.5014 40 36 28
-13.8088 -22.2589 -0.0611 51 44 38
-12.2226 -14.3238 0.5014 167 146 137
-11.0376 -2.3580 0.5015 60 56 49
-12.1784 -13.9430 0.5015 158 146 141
-11.5617 -3.3735 0.5015 70 65 61
-11.4264 4.8552 -0.0609 40 47 37
-8.8954 8.9680 0.5015 19 14 9
-10.0001 7.2563 0.5015 57 73 60
-12.3838 -13.3999 0.5016 48 44 45
-13.8911 6.8720 -0.0605 29 33 25
-13.9650 -21.9376 -0.0605 88 80 68
-11.8855 0.6809 0.5016 40 70 56
-15.7672 -21.6486 -0.0605 36 29 19
-11.2693 -23.6148 -0.0603 65 56 51
-17.2028 5.0653 -0.0595 67 89 67
-17.3930 4.0477 -0.0594 27 25 15
-13.3931 -18.4825 0.5016 106 97 86
-12.9349 -22.5403 -0.0592 96 77 63
-16.7311 -21.2904 -0.0592 33 28 22
-14.7210 -21.9339 -0.0591 90 77 72
-16.7480 -22.3681 -0.0590 28 23 15
-17.1927 4.4866 -0.0588 30 30 23
-12.9255 1.4780 0.5017 28 27 25
-12.4650 -4.5385 0.5017 48 52 46
-19.1233 2.4857 -0.0586 25 26 19
-12.1695 -18.8803 0.5017 108 98 87
-15.7681 -15.6697 0.5018 89 124 63
-11.3116 -20.2338 0.5018 95 87 85
-12.4593 -17.4598 0.5019 48 44 44
-17.3545 3.9489 -0.0585 33 31 26
-18.1149 7.1984 -0.0583 65 77 58
-11.5045 -16.8427 0.5020 49 47 40
-13.2983 -12.0112 0.5020 22 40 27
-18.3946 7.1799 -0.0582 55 68 45
-16.9870 -21.4219 -0.0581 53 44 35
-16.4053 9.3744 -0.0580 7 6 5
-15.6688 -21.5835 -0.0578 36 31 23
-16.1284 -22.1933 -0.0578 58 50 41
-18.5534 2.9284 -0.0574 6 7 4
-12.3178 -12.9935 0.5020 64 65 55
-10.0320 -21.8729 0.5020 169 139 122
-17.0845 5.2943 -0.0574 25 21 15
-18.6389 2.8274 -0.0573 22 16 14
-16.6486 -21.2197 -0.0571 35 31 22
-12.3749 -18.0694 0.5020 36 35 33
-13.0880 -11.0394 0.5020 32 33 26
-10.1102 0.5131 0.5020 115 107 109
-17.4351 5.3754 -0.0569 169 168 161
-17.5443 3.8094 -0.0567 58 56 53
-11.5961 4.5398 -0.0567 17 16 12
-18.4695 3.1554 -0.0567 42 38 35
-12.7055 7.7607 -0.0566 67 81 65
-14.9665 -21.3670 -0.0566 46 39 33
-16.3868 -21.7240 -0.0562 51 45 40
-17.5957 -19.7591 -0.0560 41 38 21
-12.8665 7.7937 -0.0560 36 58 41
-17.0860 4.4738 -0.0556 53 49 46
-13.5668 -22.4065 -0.0554 69 62 57
-17.1480 4.9813 -0.0554 79 70 59
-16.0059 -22.0924 -0.0553 57 50 42
-17.6807 4.0627 -0.0551 84 81 69
-16.5448 -21.2665 -0.0550 41 36 27
-13.8743 -22.1492 -0.0549 54 46 39
-11.5742 -5.5663 0.5635 62 65 58
-17.0587 4.9010 -0.0548 71 61 51
-11.1574 6.6455 -0.0548 72 66 59
-15.1614 -21.5570 -0.0546 19 15 12
-17.2077 4.3111 -0.0546 24 30 20
-11.0549 -5.2250 0.5635 39 37 37
-10.6890 -4.4949 0.5635 24 21 19
-10.9275 5.8736 -0.0545 65 54 43
-16.7494 -22.2317 -0.0541 62 50 42
-16.2623 9.4288 -0.0536 27 26 20
-11.9504 -7.0422 0.5636 90 81 75
-11.5239 -4.0032 0.5636 94 87 81
-13.4101 6.2785 -0.0535 47 50 40
-17.2106 4.7169 -0.0535 7 5 3
-10.7828 -18.2633 0.5637 90 86 87
-12.0585 -6.4882 0.5637 30 30 23
-9.2797 8.5057 0.5638 166 140 128
-11.3799 -3.9599 0.5638 33 25 19
-18.5668 3.0449 -0.0534 35 35 34
-13.9492 6.4342 -0.0533 26 23 20
-13.3288 -9.1675 0.5638 153 160 153
-10.6645 -16.8667 0.5639 92 84 80
-12.0466 7.4545 -0.0525 77 86 65
-12.1654 -23.1477 -0.0523 91 76 69
-11.7763 -12.2671 0.5640 42 41 36
-10.3281 -0.6088 0.5640 117 116 102
-12.6778 4.1662 -0.0521 31 29 31
-18.2795 3.1162 -0.0518 30 28 24
-13.2246 -22.4781 -0.0515 72 60 53
-12.7335 -11.0459 0.5640 36 53 31
-12.5038 -9.6575 0.5641 92 91 90
-10.3286 -2.1288 0.5642 52 51 49
-13.8652 6.6261 -0.0512 42 44 37
-16.9086 4.4293 -0.0511 70 65 62
-11.1730 5.7568 -0.0511 70 63 42
-12.5303 -9.8372 0.5642 42 42 37
-10.3813 -21.2421 0.5643 123 111 107
-9.6450 0.8960 0.5643 80 75 58
-17.6287 3.9675 -0.0510 36 34 26
-10.9752 5.7843 -0.0508 9 8 6
-9.8239 4.5232 0.5644 85 105 104
-11.8283 -4.9729 0.5644 36 39 38
-13.9818 6.5306 -0.0508 109 102 89
-12.8321 -18.1070 0.5644 43 39 36
-10.2244 -2.0790 0.5645 64 61 54
-12.5060 -8.0316 0.5645 126 165 42
-10.8299 -12.1614 0.5645 39 35 34
-16.3010 -22.1911 -0.0498 56 47 37
-13.8500 6.7538 -0.0496 54 53 50
-14.4547 -18.8187 0.2982 67 62 42
-17.4987 3.6274 -0.0495 15 15 11
-15.2492 -21.2600 -0.0492 82 68 58
-14.5853 -18.5993 0.2982 105 104 97
-17.5958 3.5820 -0.0491 50 50 43
-15.2693 -4.9561 0.2982 57 56 50
-15.3896 -21.7087 -0.0490 58 60 50
-13.5249 5.0759 -0.0490 70 64 63
-12.7321 -22.8092 -0.0487 79 67 61
-19.2001 1.8061 -0.0486 41 40 38
-18.0617 7.3249 -0.0482 29 34 26
-10.1316 -7.0142 0.7255 115 113 113
-17.0366 5.0865 -0.0482 190 175 180
-18.7846 2.9933 -0.0481 49 46 47
-18.1104 4.0809 -0.0481 54 49 41
-18.8051 2.8099 -0.0479 60 63 63
-14.1948 -21.9036 -0.0479 100 90 80
-18.2346 4.0482 -0.0475 69 66 57
-17.2524 4.9609 -0.0472 57 52 47
-16.8614 -21.1875 -0.0470 38 32 23
-15.5074 -7.1187 0.3589 53 53 51
-12.9432 -22.8204 -0.0467 39 34 25
-13.0678 -19.7836 0.3589 37 36 24
-14.3468 -3.1176 0.3590 78 73 67
-14.3665 -12.8825 0.3590 71 75 65
-12.5729 -20.3083 0.3590 35 30 26
-16.9699 5.2821 -0.0464 87 84 71
-13.5646 -16.3157 0.3590 83 78 73
-17.3673 -10.4425 0.3590 62 64 49
-17.8785 -10.0568 0.3590 56 56 41
-16.6469 -22.3229 -0.0463 25 21 13
-13.7971 -4.7216 0.3590 79 79 68
-19.1874 1.6665 -0.0462 43 42 40
-13.9353 -22.0697 -0.0462 58 51 46
-16.6434 -21.6262 -0.0461 51 43 35
-14.4653 -0.4084 0.3591 44 47 38
-10.5424 4.0112 0.3591 33 33 26
-10.3098 3.2300 0.3591 36 39 31
-17.1084 4.0267 -0.0460 15 14 10
-18.1736 3.1061 -0.0459 22 19 16
-13.3242 0.4071 0.3591 48 49 40
-14.1351 -5.7493 0.3591 68 62 58
-14.3451 -6.6322 0.3592 82 76 63
-13.3883 -16.7795 0.3593 81 80 73
-14.4933 -4.7429 0.3593 46 50 40
-17.2831 4.0232 -0.0459 81 73 64
-13.8540 6.3803 -0.0458 45 41 38
-14.9398 -14.0340 0.3594 159 134 127
-18.0840 -9.8249 0.3594 51 53 40
-12.4247 7.7936 -0.0457 35 29 18
-18.7149 3.9840 -0.0455 58 57 54
-12.5134 7.8418 -0.0454 107 105 89
-9.1634 8.8848 0.3594 40 32 26
-17.1601 -13.2392 0.3595 79 86 59
-15.4674 6.4709 0.3595 92 85 71
-17.1347 5.1896 -0.0452 42 62 47
-13.7103 5.2156 -0.0451 75 68 69
-13.7081 -0.1695 0.3596 35 38 27
-17.2965 3.8671 -0.0451 78 81 76
-17.0656 4.6505 -0.0450 24 31 21
-13.5342 -17.3824 0.3596 71 65 58
-14.3392 -13.0298 0.3597 106 114 79
-17.5984 -11.2529 0.3597 50 54 38
-14.7016 -21.1877 -0.0450 49 45 40
-14.6563 -6.6822 0.3597 54 52 42
-13.8666 -1.6952 0.3597 68 61 54
-17.7743 3.9775 -0.0450 30 33 18
-11.3103 1.2168 0.3598 60 57 55
-14.0532 -4.1864 0.3599 49 51 46
-18.2867 3.0078 -0.0446 21 17 14
-14.8998 -22.1321 -0.0444 65 72 52
-15.5714 -21.5610 -0.0444 30 28 19
-11.4685 4.4457 0.3599 48 62 35
-17.3948 3.6436 -0.0442 16 16 13
-18.2406 -8.8237 0.3599 48 49 41
-19.2964 1.6478 -0.0440 28 31 21
-18.7814 2.6785 -0.0439 64 63 61
-17.3245 -10.0175 0.3599 52 46 34
-9.2949 9.0770 0.3599 122 110 122
-18.0029 -9.4953 0.3600 88 85 69
-12.7992 -22.6445 -0.0436 108 92 86
-14.6393 4.7012 0.3600 70 77 60
-18.8378 -5.6740 0.3600 41 51 29
-16.4609 -21.2004 -0.0435 100 87 78
-14.0032 0.2780 0.3601 50 61 53
-13.7897 6.1717 -0.0434 14 20 15
-15.4596 -12.1867 0.3601 33 36 17
-16.5330 -22.2681 -0.0434 73 63 59
-18.2250 4.1954 -0.0434 54 59 48
-13.7590 -22.0709 -0.0432 56 48 40
-13.2303 -19.4655 0.3603 51 48 49
-14.3946 -1.9638 0.3603 25 29 23
-14.5165 -5.8155 0.3603 67 60 50
-18.6566 2.6954 -0.0432 31 29 27
-17.6591 4.5140 -0.0431 75 75 65
-10.9081 6.0765 -0.0429 37 33 30
-12.0226 0.9734 0.3604 82 78 75
-14.6010 -12.6995 0.3604 103 98 89
-11.9476 -23.2471 -0.0424 117 96 86
-12.1875 5.9636 -0.0423 14 35 22
-14.8602 5.4469 0.3605 82 80 79
-9.9315 9.2531 0.3606 48 46 51
-16.2505 -21.3596 -0.0419 88 76 67
-15.8586 -8.5908 0.3606 27 27 20
-13.8700 -0.5673 0.3606 51 53 45
-18.6636 3.0733 -0.0417 14 11 6
-17.1299 4.7986 -0.0416 24 18 11
-10.2075 3.2207 0.3606 90 109 99
-14.7069 -14.5555 0.3606 205 184 168
-14.3618 -15.5055 0.3606 117 98 88
-14.1583 -4.4456 0.3607 57 60 53
-15.8931 -21.9785 -0.0416 74 67 55
-17.0862 4.2808 -0.0416 63 84 67
-13.7457 -17.5013 0.3607 38 35 29
-10.4600 -22.3721 0.3607 57 41 34
-12.7105 -22.7085 -0.0413 116 96 84
-14.3499 -13.4488 0.3607 91 70 55
-14.3227 -3.9139 0.3607 34 31 27
-16.8484 -21.4098 -0.0413 43 37 29
-18.5824 4.3714 -0.0411 35 37 25
-11.2105 6.7327 -0.0407 50 47 42
-12.3227 -22.9593 -0.0406 131 111 104
-12.1576 7.5018 -0.0402 86 89 76
-12.9540 7.7062 -0.0393 30 55 39
-14.2860 -12.9424 0.3607 189 170 169
-13.4023 -17.9192 0.3608 43 37 33
-17.5687 -8.8837 0.3608 75 74 61
-13.6225 5.2731 -0.0393 73 65 66
-17.6063 3.4557 -0.0389 46 45 36
-16.7821 -21.1252 -0.0387 17 14 8
-14.3974 -21.4615 -0.0386 40 32 26
-14.2509 -6.6831 0.3608 63 58 53
-14.6090 4.5921 0.3609 94 104 96
-11.0863 6.5474 -0.0386 101 98 88
-16.9852 4.2595 -0.0385 51 46 42
-13.9785 -21.7831 -0.0380 110 95 87
-14.4207 -21.5673 -0.0379 68 59 55
-11.7292 7.4522 -0.0375 53 65 50
-17.5048 -7.3036 0.3199 61 59 49
-13.4936 -22.2860 -0.0368 71 63 59
-16.6479 -22.1633 -0.0367 63 53 45
-16.6121 -10.9951 0.3202 93 104 77
-14.1508 -21.6453 -0.0362 86 78 67
-11.4601 5.0281 -0.0360 74 71 47
-12.9084 -22.4184 -0.0358 100 84 68
-11.0629 3.1993 0.3202 82 83 83
-16.2725 -11.7607 0.3203 37 44 30
-15.2820 -2.9267 0.3203 54 57 52
-16.4936 -11.6867 0.3203 42 50 32
-14.1157 -18.6387 0.3203 87 79 69
-18.6297 -13.9582 0.3203 33 56 5
-11.1250 3.0333 0.3203 36 41 37
-10.9442 1.8631 0.3204 84 86 78
-16.7086 -4.3071 0.3204 56 58 49
-9.6907 6.0649 0.3205 63 58 30
-9.0274 1.0744 0.8740 104 85 72
-15.2778 -13.3581 0.3205 79 69 59
-16.4642 -9.1052 0.3206 77 86 67
-16.8254 -11.6636 0.3206 88 92 60
-14.6668 -13.1566 0.3206 62 59 55
-15.5623 -13.3406 0.3206 49 44 38
-16.8674 -12.8910 0.3206 62 88 6
-13.9465 -17.0304 0.3207 82 72 66
-15.1042 -4.2355 0.3208 61 61 52
-9.0712 -15.4051 0.8740 160 149 143
-14.6480 -2.6529 0.3208 44 49 41
-15.4712 -13.6222 0.3208 67 61 54
-9.0800 -12.6007 0.8741 183 172 165
-10.3380 2.8308 0.3209 58 58 53
-13.8334 -16.7669 0.3209 68 58 43
-9.1750 -13.0799 0.8741 80 74 66
-9.4659 -8.9078 0.8741 70 87 75
-9.4211 -2.3438 0.8744 137 125 113
-9.0484 -17.8184 0.8744 87 79 72
-8.7417 6.4658 0.8744 13 28 13
-15.4650 7.1235 0.8746 30 46 29
-8.8565 -21.3615 0.8747 76 65 56
-7.9830 8.2101 0.8749 6 5 0
-8.0439 -16.8692 1.2734 36 31 26
-9.2265 -10.4645 0.8750 236 225 222
-8.3625 4.3311 1.2734 56 44 32
-8.5926 -2.4167 1.2737 72 54 40
-9.0143 4.9921 1.2738 32 68 33
-9.2053 -9.6634 0.8751 149 126 111
-8.2414 0.0519 1.2738 118 95 70
-8.2244 -22.7360 0.8754 57 47 37
-9.1629 -1.5505 0.8760 170 156 144
-9.1397 -18.6230 0.8761 107 93 89
-8.5873 -0.8130 1.2740 64 45 40
-8.1909 0.3680 1.2742 53 49 39
-8.3221 -5.4014 1.2742 39 35 28
-8.0786 7.4344 1.2743 44 49 43
-8.1580 -15.6078 1.2743 42 35 33
-9.2642 -8.5202 0.8764 36 44 32
-11.6494 3.1517 1.2745 37 74 51
-8.4816 -22.0539 0.8764 70 61 50
-7.7727 10.1364 0.8765 6 4 2
-8.0710 -18.0477 1.2748 58 51 45
-9.0590 -9.3915 0.8766 94 84 67
-9.3359 -4.2596 0.8767 123 111 99
-8.8698 1.5023 0.8767 129 103 82
-9.2836 -2.0778 0.8768 213 195 164
-9.3260 -4.3600 0.8769 141 127 111
-8.0071 -20.7199 1.2748 54 40 34
-8.2509 -10.4288 1.2748 37 29 21
-8.7067 4.3423 1.2749 45 79 63
-9.4719 4.4408 0.8769 31 45 21
-9.0530 -14.3742 0.8769 72 61 54
-8.9906 -10.0687 0.8770 121 91 73
-9.1031 3.8738 0.8770 122 118 108
-9.1094 -13.1902 0.8770 126 113 102
-8.0445 2.8827 1.2750 49 37 25
-9.1518 -10.5778 0.8771 218 200 187
-9.3284 -3.9704 0.8771 75 71 66
-9.1691 -6.3942 0.8773 53 46 39
-7.8670 -21.6330 1.2750 44 36 24
-8.9178 -17.3399 0.8775 53 40 24
-9.0866 0.4265 0.8775 58 49 39
-8.9288 -0.6619 0.8781 77 66 55
-7.9810 -16.5338 1.2751 99 84 74
-8.2668 -0.0946 1.2752 146 116 91
-9.1900 5.6949 0.8783 0 255 0
-9.1635 -12.2839 0.8783 128 107 99
-10.6899 2.8002 1.2753 33 80 55
-9.0525 0.3178 0.8784 90 75 60
-8.3744 -4.4433 1.2754 83 78 66
-8.2224 -10.2308 1.2760 62 52 43
-11.1082 2.4723 0.8784 105 127 101
-9.0627 -19.8930 0.8786 41 31 27
-9.0573 -16.8335 0.8786 35 28 20
-9.7087 7.9104 0.8786 66 86 58
-8.2469 7.0404 0.8788 18 15 6
-8.7755 -21.4329 0.8790 42 37 30
-7.9166 9.8531 0.8790 97 82 72
-9.6581 3.9939 0.8793 38 56 28
-8.0176 7.8571 0.8793 9 7 5
-9.2848 -2.5989 0.8794 94 84 76
-9.1870 -10.2080 0.8796 196 164 135
-9.1936 -4.5694 0.8796 45 41 30
-10.4069 4.7041 0.8798 22 29 19
-8.2182 -12.4198 1.2760 61 49 35
-9.2734 -18.4637 0.8800 57 46 41
-8.1372 3.3882 1.2763 115 103 84
-8.0425 -21.2320 1.2764 62 53 40
-9.1789 -4.3769 0.8801 72 69 55
-11.7712 8.0422 0.8806 61 71 43
-7.9474 3.9269 1.2768 108 108 95
-8.0658 -17.4079 1.2768 95 90 84
-8.0742 1.8778 1.2771 33 29 17
-8.6041 5.3893 0.8807 15 12 6
-9.0592 -20.1990 0.8810 79 74 72
-9.0723 -13.0418 0.8810 76 63 55
-7.9480 4.0363 1.2773 76 75 62
-9.0342 -13.3358 0.8810 181 163 158
-7.1820 9.8150 1.2774 53 46 37
-8.0975 -12.8661 1.2774 48 44 37
-9.1959 -6.1020 0.8811 101 94 84
-9.0333 -11.6207 0.8811 240 221 205
-7.8243 10.0305 0.8814 34 26 17
-8.1633 -14.5637 1.2776 95 87 80
-8.9584 4.7818 1.2777 26 73 38
-8.6668 -21.8315 0.8815 78 67 58
-9.0410 4.8672 1.2777 24 62 23
-7.1322 9.9279 1.2781 53 42 31
-9.2150 -10.9717 0.8820 223 200 184
-8.2206 -10.1235 1.2781 91 79 66
-8.0438 -18.6962 1.2782 31 24 18
-7.6937 7.0872 1.2783 69 67 56
-9.2306 -6.9037 0.8822 138 130 120
-9.0211 3.6099 0.8823 83 79 62
-9.4161 0.5586 0.8825 106 88 74
-7.5907 6.8148 1.2784 83 77 73
-8.6390 -2.7002 1.2784 148 130 111
-9.0488 -14.8330 0.8825 95 77 55
-9.6489 -10.1965 0.8825 232 222 185
-9.0975 -19.1328 0.8826 164 136 123
-9.1232 -16.2773 0.8833 56 46 34
-9.0615 -15.2552 0.8834 70 58 48
-7.9924 -20.9874 1.2785 135 126 113
-9.1822 -16.5594 0.8834 106 94 89
-8.0156 -16.6350 1.2786 89 80 77
-8.0556 -16.9987 1.2787 69 59 50
-7.8269 5.4087 1.2790 75 64 56
-7.9414 4.8955 1.2790 41 36 27
-9.0812 -13.7300 0.8835 23 20 17
-9.0422 -14.5976 0.8835 47 41 41
-9.0334 -18.7728 0.8837 5 3 2
-8.8864 -9.8849 0.8838 85 72 58
-9.1184 -4.9408 0.8840 77 79 69
-9.0698 -10.4056 0.8845 247 219 198
-9.0640 -9.1100 0.8845 126 118 103
-8.9287 -19.8167 0.8845 61 46 38
-7.2335 9.3618 1.2791 55 44 32
-8.6105 -3.2699 1.2792 60 54 46
-7.6738 7.5002 1.2793 7 6 5
-9.2454 -4.6804 0.8846 49 40 32
-9.2060 -1.7671 0.8847 97 86 78
-7.4945 7.8133 1.2796 21 18 18
-8.2889 7.2069 0.8849 98 82 67
-8.1278 -14.7674 1.2798 46 36 26
-7.9641 8.3313 0.8850 37 29 22
-9.4206 5.1054 1.2799 50 44 28
-7.7815 5.8523 1.2806 31 27 20
-8.4962 -1.4237 1.2807 209 189 174
-11.3414 -11.5475 1.2808 187 199 135
-8.2352 -10.8528 1.2808 103 95 89
-8.0840 -15.9026 1.2808 62 55 49
-8.4368 -0.7534 1.2808 71 59 44
-7.7614 -21.8914 1.2813 33 27 20
-16.2564 -5.1386 0.3210 54 47 36
-9.6096 5.6765 0.3210 30 23 14
-8.2475 -4.9720 1.2813 81 86 73
-8.1101 -19.4355 1.2813 114 105 89
-7.9318 -20.3505 1.2815 57 49 34
-15.6027 7.1053 1.2816 69 86 52
-8.1975 -13.1545 1.2816 69 58 47
-8.4955 -1.6068 1.2819 94 67 46
-14.6169 -23.6504 1.2820 70 72 53
-16.8862 5.2259 -0.0356 56 78 55
-9.4317 4.6926 1.2821 12 22 21
-7.9716 -16.4077 1.2822 93 80 66
-7.6121 -22.4507 1.2824 26 20 10
-17.4457 3.7874 -0.0355 99 107 108
-17.6421 3.7791 -0.0352 41 46 30
-13.6643 7.2439 -0.0351 33 32 28
-16.3457 -22.0205 -0.0350 55 47 39
-18.1340 3.2097 -0.0348 40 36 34
-8.2138 -10.7353 1.2824 48 36 24
-8.4771 -1.1945 1.2827 251 242 233
-17.4975 3.4666 -0.0346 36 39 30
-8.4164 -3.9601 1.2828 71 63 57
-8.1684 -14.4338 1.2830 46 41 36
-17.3039 3.6973 -0.0345 67 72 63
-14.5899 -21.1907 -0.0343 73 72 68
-13.7771 5.8613 -0.0342 75 66 67
-17.5983 -18.9410 -0.0341 42 40 34
-13.6510 -22.1470 -0.0339 73 64 60
-12.8307 -22.8416 -0.0332 81 65 53
-13.4524 7.5007 -0.0330 76 91 86
-8.1962 -13.3401 1.2830 80 67 58
-8.2249 -13.4892 1.2832 64 52 41
-8.4939 1.4243 1.2837 58 71 44
-8.6001 -3.0990 1.2837 25 21 17
-7.1960 9.2162 1.2840 107 87 73
-16.5736 -21.1512 -0.0329 49 45 37
-17.6626 2.9794 -0.0327 31 36 30
-17.7152 3.4674 -0.0322 55 56 50
-17.1575 3.7043 -0.0321 17 18 12
-18.7704 4.5944 -0.0318 48 58 41
-16.7455 -21.5984 -0.0318 76 68 63
-8.0949 -14.6577 1.2841 71 61 51
-16.9730 -21.1482 -0.0317 93 79 68
-16.4615 -21.9831 -0.0313 139 128 124
-17.6530 3.3441 -0.0313 39 45 34
-18.2305 2.9031 -0.0310 18 17 14
-8.1263 -14.9904 1.2842 90 83 74
-11.4545 3.1856 1.2844 30 80 57
-19.2646 3.9875 -0.0309 61 67 46
-18.5503 7.0353 -0.0307 73 88 64
-7.9677 -21.1525 1.2846 85 74 66
-11.4837 7.0683 -0.0306 53 47 39
-13.4686 -22.4381 -0.0306 70 60 54
-14.3043 -21.3837 -0.0304 24 19 17
-8.7975 -7.9309 1.2847 126 114 93
-8.5620 -1.0973 1.2847 186 172 163
-9.0170 5.0917 1.2850 40 51 34
-8.4322 -4.3458 1.2856 96 92 79
-12.7760 6.0977 -0.5755 57 46 50
-8.3027 -9.7447 1.2861 197 175 155
-12.7914 5.9715 -0.5563 83 75 83
-12.7622 5.8467 -0.5211 97 96 119
-12.8665 5.8544 -0.5154 68 60 64
-12.8812 5.9750 -0.5107 40 34 37
-12.8621 6.1576 -0.5050 45 42 40
-12.9772 6.0819 -0.4902 67 56 57
-7.9872 -20.1148 1.2862 128 115 101
-17.0909 -23.4613 -0.4873 42 44 32
-8.1746 -12.9512 1.2863 114 115 119
-11.6422 6.1187 -0.4824 80 77 61
-11.7044 6.0178 -0.4787 26 17 17
-11.5746 6.0055 -0.4775 87 77 59
-11.3902 5.8658 -0.4710 23 22 14
-12.6727 5.6470 -0.4677 13 15 20
-11.5608 5.6925 -0.4654 19 19 15
-11.4497 6.0306 -0.4598 39 37 25
-11.5820 6.2414 -0.4548 15 11 8
-11.5213 6.1139 -0.4472 78 78 21
-12.8554 5.7799 -0.4457 37 35 42
-11.3187 5.7696 -0.4393 29 24 19
-11.3764 5.9622 -0.4381 18 10 6
-14.6624 -14.1280 0.3609 124 93 73
-11.6596 6.4201 -0.4343 30 28 25
-10.7718 7.6001 0.3609 42 41 35
-16.4190 -11.6170 0.3609 32 36 23
-18.6648 -6.0077 0.3609 76 87 61
-16.9609 -23.5137 -0.4327 49 45 33
-12.8129 6.0415 -0.4300 38 35 37
-13.0234 6.1489 -0.4298 79 73 75
-14.3621 -2.5830 0.3609 68 73 68
-12.8152 5.8903 -0.4260 35 29 34
-15.0064 -14.2159 0.3609 109 87 75
-12.9150 6.0245 -0.4254 50 48 49
-12.0945 6.7474 -0.4238 30 40 30
-13.0675 6.0460 -0.4214 57 50 49
-11.5230 5.5555 -0.4211 10 12 10
-12.5121 5.7442 -0.4103 34 38 33
-9.5847 6.2808 0.3610 61 49 42
-14.5589 -14.5929 0.3610 250 241 239
-11.4660 5.6433 -0.4031 35 31 24
-13.9440 -4.7142 0.3610 76 76 73
-13.1634 6.1075 -0.4027 56 44 44
-14.4438 -15.2556 0.3610 179 154 145
-14.2591 -3.2321 0.3610 82 77 69
-17.5573 -10.8712 0.3611 24 25 16
-13.4179 1.8937 0.3611 23 31 25
-17.8727 -10.4194 0.3611 76 76 56
-14.5013 -3.7203 0.3612 74 71 62
-17.0627 -13.2763 0.3612 62 78 33
-14.2141 -3.0789 0.3612 73 68 65
-13.1159 5.9264 -0.3947 50 40 42
-15.3012 5.9715 0.3613 67 71 62
-9.0796 8.9768 0.3613 32 28 16
-14.4329 -3.8859 0.3614 55 56 49
-11.2283 5.8449 -0.3922 35 27 18
-14.5004 -7.4264 0.3614 49 47 39
-12.3964 5.7225 -0.3876 29 33 29
-12.9979 5.8612 -0.3868 33 25 27
-14.3837 -5.4967 0.3615 46 44 34
-12.2979 5.8691 -0.3867 35 38 31
-13.6994 -16.4646 0.3615 46 44 33
-15.2645 -23.6424 -0.3783 53 45 36
-12.9496 5.7695 -0.3779 55 53 66
-15.3854 -23.6597 -0.3769 20 16 10
-15.2081 -11.1885 0.3616 76 67 58
-10.2173 3.6276 0.3616 44 52 48
-17.4301 -10.0119 0.3616 68 66 52
-12.1540 5.7874 -0.3750 38 43 43
-11.8953 6.6982 -0.3740 84 76 75
-13.1469 6.2221 -0.3727 65 53 47
-15.4105 -23.4601 -0.3727 31 24 17
-17.0215 -4.3187 0.3616 70 69 54
-11.8037 6.6423 -0.3725 45 49 36
-15.0580 -11.8473 0.3616 95 96 85
-17.7290 -7.0374 0.3616 82 77 61
-14.7671 -12.3879 0.3617 47 44 37
-13.1916 5.9988 -0.3721 90 80 82
-15.1058 -11.7400 0.3617 66 62 53
-14.1124 -3.1022 0.3617 25 22 17
-11.9865 6.7541 -0.3707 60 53 47
-15.6346 -23.6195 -0.3704 36 30 22
-15.5038 -23.5277 -0.3696 32 26 20
-14.9604 -0.1614 0.3617 39 46 33
-11.3589 6.0494 -0.3691 42 42 40
-13.1212 5.4961 -0.3690 14 13 18
-11.3259 5.6897 -0.3689 21 21 14
-13.1580 5.6086 -0.3674 6 4 5
-12.7940 6.8289 -0.3673 86 70 67
-16.5736 -23.3677 -0.3670 44 39 31
-17.6589 -8.9993 0.3617 118 125 115
-13.8563 -17.2315 0.3618 25 25 17
-13.4682 -19.0802 0.3618 49 47 41
-12.2296 5.7124 -0.3640 25 23 25
-9.5048 5.5134 0.3618 2 0 1
-14.0557 -17.8733 0.3619 68 70 56
-14.5535 -14.6983 0.3619 253 248 244
-16.3345 5.6265 0.3620 33 49 32
-18.5953 -12.7629 0.3620 61 87 32
-14.4019 -15.3674 0.3621 121 94 86
-9.6392 -17.9023 0.7258 61 52 45
-14.5378 -14.9284 0.3621 218 208 202
-14.1081 -2.0267 0.3622 76 81 69
-18.3862 -10.6229 0.3622 51 56 36
-14.3033 -5.1922 0.3622 56 52 47
-9.6775 -14.4892 0.7258 87 76 69
-14.8019 -14.3960 0.3622 185 153 136
-17.6071 -9.1712 0.3622 55 56 44
-13.6716 -0.4077 0.3623 9 7 3
-15.3649 -12.1486 0.3623 28 28 19
-8.1120 -23.4873 0.7259 114 94 82
-10.1654 3.4241 0.3623 91 90 80
-14.9872 -13.8171 0.3623 183 137 109
-15.7476 -12.0254 0.3623 31 35 16
-9.5801 -0.3873 0.7261 75 70 65
-14.9789 5.3904 0.3623 53 52 51
-13.9851 -4.6140 0.3625 56 57 53
-8.3529 8.6895 0.7261 53 42 37
-18.0629 -10.2706 0.3626 53 51 42
-11.0727 1.0354 0.3626 73 71 66
-9.6880 -3.5632 0.7261 55 51 48
-14.3641 -0.5601 0.3626 65 86 73
-15.0722 -11.6414 0.3626 38 35 29
-10.3009 5.6354 0.7262 31 46 51
-10.5589 2.4025 0.3626 65 62 57
-13.6483 -16.8606 0.3626 59 53 47
-9.8009 -1.6481 0.7263 61 56 53
-14.2326 -0.5842 0.3627 41 48 37
-14.7050 -12.2820 0.3627 57 55 45
-15.3791 5.7846 0.3627 47 49 43
-15.3613 7.3321 0.3627 52 56 45
-9.4486 2.6753 0.7263 54 53 48
-14.9556 -12.0781 0.3628 63 64 50
-9.7168 -3.9703 0.7263 73 66 60
-9.6690 -2.3930 0.7264 77 68 65
-9.6859 -13.5080 0.7265 110 91 82
-11.7643 -17.4716 0.7265 74 57 39
