0.4623 1.3495 5.5065 116 133 46
22.3363 -6.9662 10.2451 86 91 60
20.1851 -13.1422 5.5105 68 95 39
-3.4053 -6.6046 10.2458 115 119 59
20.6102 -13.3344 5.5122 69 91 45
16.7192 -10.4448 5.5133 91 90 61
-8.8547 10.0526 10.2478 92 93 61
-3.7357 -15.1625 5.5253 93 90 61
19.1156 -7.8570 10.2599 99 105 56
14.0275 -13.9281 10.2630 82 94 53
17.0178 -10.2312 5.5328 68 95 52
14.3423 -13.6658 10.2678 165 186 38
20.3500 -12.6613 5.5383 110 146 62
-11.2441 -21.8132 10.2732 110 114 58
5.9607 -0.9646 4.6701 61 97 62
-2.3082 -8.8928 4.6729 76 102 55
-1.9964 -9.0956 4.6783 90 108 63
5.8088 -0.8182 4.6841 59 105 57
2.9042 4.2378 10.2957 90 90 58
16.0383 -13.7856 12.0455 79 98 47
18.7817 -14.1114 4.6891 65 94 49
-2.9692 -8.9527 4.6916 113 110 50
14.9655 -13.8195 12.0505 80 101 54
-2.2119 -8.5053 4.6971 87 108 63
-3.0766 -8.2045 4.6988 92 92 62
15.4190 -13.9845 12.0594 90 119 13
-6.5793 -4.9859 4.7071 109 90 62
5.7715 -0.6502 4.7090 104 122 36
6.0914 -0.5619 4.7107 70 98 14
-4.7925 -24.5645 4.7164 149 166 62
6.5862 -0.7451 4.7194 73 98 60
-0.4892 2.3944 4.7329 74 93 54
-5.3701 -25.0058 4.7466 104 105 60
5.8850 -0.4560 4.7472 116 133 59
-2.4178 -8.7931 4.7689 93 95 63
-3.7191 -16.2162 4.7718 102 111 55
12.5218 -18.4327 4.7737 44 103 46
-3.7818 -13.7599 4.7805 86 95 30
20.7069 -12.9585 4.7852 84 106 45
-2.9553 -8.5951 4.7928 94 101 29
-2.3269 -8.7354 4.7974 96 94 37
-3.5681 -15.3195 4.8000 90 90 59
-16.5660 -22.6854 4.8139 97 111 50
-2.9004 -8.7955 4.8220 97 98 63
-4.2792 -13.4330 4.8351 111 103 48
21.5073 -12.0127 4.8439 78 101 61
5.9664 -0.5671 4.8498 69 90 50
20.6140 -12.9725 4.8749 55 92 20
20.1858 -11.3530 4.8956 67 92 46
6.0946 -0.9473 4.8981 57 97 62
5.5037 -1.0141 4.5040 71 136 51
5.9110 -1.0730 4.5062 45 91 50
5.7398 -0.6071 4.5135 97 130 51
5.7161 -1.0588 4.5149 59 117 51
5.4478 -0.7907 4.5151 54 94 48
-2.9175 -23.4522 4.5155 94 97 54
18.0120 -13.3033 4.5190 57 105 35
-4.7432 -24.9227 4.5218 89 112 62
5.3414 -0.5648 4.5330 63 134 61
5.9550 -0.9627 4.5658 55 95 54
5.9580 -1.2790 4.5679 66 103 48
22.4332 -18.4980 4.5696 56 93 50
1.9798 4.1187 4.5697 72 93 57
5.9117 -1.3932 4.5698 71 117 54
18.4001 -13.4631 4.5745 55 94 55
6.3461 -0.7637 4.5758 72 93 58
18.4072 -14.3532 4.5788 88 127 37
-15.6995 -25.2579 4.6032 94 101 63
-2.1271 -8.7705 4.6042 122 99 60
18.5571 -14.1243 4.6050 43 98 58
9.4574 2.3978 4.6056 73 95 62
-4.7062 -24.7111 4.6058 62 94 57
5.4592 -0.9468 4.6138 82 112 56
-2.0646 -8.9110 4.6171 111 125 45
-15.5815 -25.3307 4.6221 102 105 52
4.1460 0.6393 4.6470 136 96 61
18.8856 -14.2961 4.6474 52 108 38
-18.6947 -6.9033 4.6481 95 104 61
5.9843 -0.5297 4.6522 94 99 49
-3.9405 -15.1151 4.6526 97 93 57
18.4588 -14.2626 4.6536 62 108 59
-4.1936 -13.9226 4.6584 101 103 51
21.0435 -12.3635 5.9738 67 95 54
20.4771 -12.2151 5.9745 79 103 54
19.1135 -3.3990 5.9857 101 101 61
20.3234 -11.9673 5.9944 61 90 46
15.1615 -13.5866 12.0806 87 108 46
17.2285 -9.2343 6.0006 95 90 63
15.6234 -14.0285 12.0820 97 119 42
21.3459 -13.2274 6.0032 61 94 48
21.1940 -13.2690 6.0060 85 101 51
20.4466 -12.0383 6.0264 69 90 56
-12.6319 9.6835 6.0288 68 93 62
-12.9906 -12.0072 12.0974 92 93 58
21.0943 -13.2613 6.0440 65 96 54
20.6884 -12.2486 6.0461 85 113 51
-17.0088 -7.7676 6.0466 96 98 63
13.8085 -13.3797 12.1024 83 110 63
20.9729 -12.2333 6.0476 56 107 41
15.5335 -13.8676 12.1091 102 123 51
6.1973 0.8261 6.0484 105 107 62
20.5528 -12.1859 6.0638 65 104 42
15.2503 -13.9200 12.1208 94 111 60
-1.5154 -3.3942 6.0714 50 100 47
15.4484 -14.0527 12.1481 100 125 62
11.8853 -19.3752 6.0753 76 90 54
-12.6700 9.7967 6.0763 83 96 62
15.5536 -14.0937 12.1503 72 99 40
20.6237 -12.1133 6.0973 83 127 52
0.3073 2.0176 6.1034 66 91 59
11.2525 -19.2571 6.1065 60 90 48
15.0939 -14.4211 12.1565 94 97 61
19.2894 -10.7326 6.1100 102 98 59
-3.9124 -14.6323 6.1113 105 91 60
0.2198 1.9633 6.1123 69 109 4
-10.4730 6.2289 12.2413 95 92 63
11.4075 -19.3401 6.1139 90 101 61
-5.7325 -20.8324 12.2679 116 134 32
10.9836 5.0700 6.1241 83 92 11
20.7527 -12.0901 6.1304 91 128 62
-1.3962 -2.9630 6.1482 88 94 45
-13.9973 -8.7560 6.1548 78 90 48
20.5464 -12.0079 6.1549 88 118 55
18.7643 -14.3188 6.1550 69 96 51
18.6986 -14.5421 6.1766 54 96 44
18.4783 -14.4408 6.1782 73 102 63
20.9447 -12.8136 6.1795 61 95 54
11.0065 -19.3235 6.1819 85 90 49
-1.3167 -3.1728 6.1881 59 94 63
-1.0830 -3.1819 6.1986 71 108 50
18.8618 -14.4372 6.2094 59 96 60
18.7578 -14.4651 6.2263 50 100 33
10.7249 -19.6164 6.2615 57 91 59
18.7904 -14.3737 6.2627 54 99 39
0.1891 2.0811 6.2785 67 93 46
-1.1105 -3.0971 6.2799 106 116 53
-12.6832 9.7670 6.2956 73 95 60
18.5951 -14.2197 6.3024 70 97 58
11.3319 -19.3125 6.3210 92 93 57
-14.7179 -8.0735 6.3354 86 96 0
-11.8011 -9.2328 6.3439 96 101 62
-1.5886 1.0325 6.3544 97 98 53
11.1148 -19.1076 6.3576 84 90 36
-11.5347 5.0938 6.3626 59 90 50
18.8721 -14.3331 6.4079 70 105 58
16.0317 -10.5177 10.2981 81 91 62
-16.5903 -7.8271 6.4145 85 92 57
19.2318 -10.7964 10.3025 104 92 57
21.2057 -14.1345 6.4385 140 161 32
4.2540 5.4250 10.3225 74 90 23
18.9768 -14.2048 6.4621 70 96 60
-12.9876 -5.9748 10.3309 93 92 54
-0.8449 -2.9169 6.4634 50 91 57
14.9372 -13.4987 10.3336 92 122 36
18.9147 -14.1251 6.4907 76 101 9
2.4859 -18.2310 10.3385 83 91 56
-1.4447 -2.4085 6.4925 85 95 51
-14.1945 5.9887 10.3431 70 90 53
-3.4172 -9.4855 6.4948 106 116 40
19.1915 -13.4835 6.5350 88 99 63
13.1695 2.6980 6.5407 71 92 59
16.6860 -10.5647 6.5466 94 93 60
18.9990 -14.2163 6.5642 65 96 59
20.5692 -13.0866 7.7910 100 135 60
13.7496 2.0716 6.5774 72 98 36
20.9566 -13.2203 7.8051 86 111 54
21.4345 -12.4411 5.7886 72 100 44
-12.2049 -20.1766 7.8079 118 122 63
21.2994 -12.5253 5.7915 72 92 46
20.7404 -13.2318 7.8123 62 95 22
20.0963 -12.3441 5.7952 76 113 54
17.9634 -13.3112 7.8343 92 119 43
-11.5601 5.0443 5.7982 71 97 46
-21.4683 -9.3658 7.8365 89 92 63
17.5625 -13.0599 7.8377 67 95 34
-2.1000 -3.1218 5.8089 72 101 62
18.4931 -12.4781 7.8420 101 121 48
21.1915 -12.6728 5.8165 90 110 63
15.9957 0.8981 7.8511 90 100 62
-8.0619 -25.3642 5.8212 88 101 61
16.9537 -12.4990 7.8604 88 112 56
20.6746 -13.1279 7.8609 69 95 36
20.8599 -12.4999 5.8255 79 113 53
19.7787 -11.0593 7.8764 93 92 57
-10.1019 -11.4994 7.8785 127 95 63
20.4570 -12.3182 5.8350 82 102 57
20.9932 -13.6593 7.8855 91 105 59
19.8444 -11.9793 5.8509 90 109 61
20.5184 -13.0147 7.9114 96 139 12
21.0878 -12.6436 5.8515 84 110 54
20.6051 -12.6504 7.9142 119 122 53
21.1246 -12.9900 5.8538 58 103 27
13.2658 3.2807 7.9214 77 103 55
21.2632 -12.9369 5.8572 76 97 61
15.7434 -16.6592 7.9265 97 108 63
20.2513 -12.2466 5.8625 82 105 62
20.5144 -12.7056 7.9305 95 103 56
-1.8771 -2.0494 5.8690 86 91 60
10.8563 -19.2637 7.9571 84 92 61
-19.8081 -6.7521 5.8733 79 91 37
11.8598 -18.6389 7.9653 108 109 62
-0.9632 1.9549 5.8748 78 97 42
17.3499 -12.6333 7.9792 80 106 45
10.7335 5.3495 5.8785 61 94 58
-11.6090 5.0208 7.9905 64 96 54
18.6518 -12.9318 7.9925 88 123 45
20.7141 -12.4114 5.8901 72 100 53
19.2012 -12.9052 8.0106 88 93 58
7.0658 -0.8207 5.8911 108 103 48
18.9062 -12.6928 8.0142 143 178 34
17.3452 -8.8740 5.8954 110 137 25
18.5245 -12.7757 8.0145 100 116 51
20.4079 -12.2761 5.9126 83 111 52
19.9106 -11.1029 8.0532 111 90 62
19.2757 -10.9147 8.0632 100 110 63
20.5266 -12.2868 5.9153 91 124 59
18.9780 -12.6132 8.0642 65 121 40
20.9162 -12.3932 5.9424 73 101 53
20.6702 -12.2677 5.9465 70 102 51
-12.6521 9.8306 5.9503 76 91 54
20.5514 -13.2863 7.5443 75 90 42
-0.8521 0.8314 5.9561 72 97 54
9.0283 2.0031 8.7201 103 95 35
20.4405 -13.1715 7.5501 77 108 48
21.2957 -13.3097 5.9593 62 93 51
-19.6986 -6.5978 5.9642 84 93 52
20.4154 -12.1163 5.9644 77 100 58
17.0436 -12.9838 7.5536 79 103 56
-14.8065 -8.0093 5.9659 90 93 46
20.9587 -13.0777 5.9685 60 90 45
20.9145 -13.8373 7.5537 76 110 31
-3.1901 -8.8608 7.5544 81 99 48
19.8939 -12.8607 5.5388 67 90 47
21.0434 -13.8962 7.5565 91 110 59
20.7028 -13.2417 5.5430 64 90 38
20.8050 -13.7046 7.5575 104 143 54
-0.9513 1.0255 5.5457 107 91 63
21.1327 -13.3373 7.5788 149 164 45
17.2634 -10.2209 5.5564 80 91 60
-4.1390 -24.3058 7.5811 153 168 54
20.6574 -12.6630 5.5598 72 100 50
-11.5779 4.9836 5.5607 76 109 57
-5.9428 -19.4131 7.6019 97 108 54
20.8272 -12.7540 5.5685 93 117 55
21.1987 -13.7196 7.6158 81 107 61
20.0367 -12.7509 5.5776 64 94 45
20.7587 -13.4316 7.6168 86 118 50
-11.0948 -8.9667 5.5802 96 99 61
20.8268 -13.5249 7.6369 94 143 59
19.7989 -12.8117 5.5938 59 90 39
20.6713 -13.3688 7.6381 83 117 45
19.9320 -12.7405 5.6066 71 97 47
-10.6834 -11.0473 7.6397 138 156 10
20.1122 -12.6967 5.6169 74 101 45
15.7353 -16.5998 7.6403 83 92 51
20.9778 -12.6959 5.6354 88 91 43
11.5269 6.6056 5.6434 98 97 60
17.1457 -11.7626 7.6627 101 105 48
20.0002 -12.6869 5.6565 74 113 48
-6.3247 -19.3803 7.6915 81 92 20
21.5063 -12.4047 5.6586 72 95 60
20.4981 -13.1292 7.6925 84 106 44
20.3448 -12.4546 5.6720 89 130 58
17.6789 3.5066 7.7000 81 124 32
19.7757 -12.6846 5.6837 54 97 49
20.4541 -12.3355 5.7130 92 118 60
-12.6581 9.7460 5.7153 67 90 59
20.0397 -12.6071 5.7155 65 100 38
0.2819 1.1963 5.7228 82 96 38
20.6831 -13.9935 8.0748 87 106 59
6.8879 -0.8202 5.7382 96 92 63
14.8408 -12.7129 8.0778 69 90 41
19.9537 -12.4802 5.7386 68 103 49
19.1163 -12.6799 8.0799 125 143 61
20.6800 -12.5028 5.7412 90 117 52
21.0253 -12.6332 8.0864 95 125 48
19.8443 -12.2982 5.7430 77 135 16
14.3202 -13.0159 8.0950 95 103 59
19.7716 -12.4173 5.7445 78 112 47
20.0193 -13.5538 8.1023 98 99 60
19.9402 -12.3090 5.7692 72 107 30
-10.3129 -22.4829 8.1116 101 96 48
-17.2962 -7.5813 5.7694 98 102 50
20.7463 -13.8013 8.1118 99 137 9
-10.8575 -2.6396 5.7720 78 99 58
18.0329 -13.5867 5.7728 51 103 62
16.7152 -10.8292 8.1156 94 94 58
20.0023 -12.4025 5.7855 72 117 51
-11.6180 5.0145 8.1200 69 101 61
11.8806 -19.0747 8.1521 88 102 54
15.1742 5.6819 3.7918 72 93 60
-6.3112 -19.9034 8.1857 102 99 52
-11.5342 4.9807 3.7983 71 112 42
20.6316 -12.4108 8.2025 64 97 55
14.5746 5.7424 3.8076 70 125 54
11.9928 -19.7577 8.2256 56 92 63
10.5337 4.3734 3.8106 67 94 60
14.1070 -12.9995 8.2382 85 122 54
18.4011 -2.3445 3.8233 83 99 47
15.6443 -16.7650 8.2398 85 90 58
-11.4789 5.0949 3.8628 75 90 56
20.6166 -13.9120 8.2407 108 120 58
19.5464 -8.2864 3.8908 66 105 10
-5.3523 -24.4656 8.2481 73 90 54
-17.5230 -21.6017 3.8962 104 110 43
19.4956 -13.7552 8.2843 106 91 54
18.3720 -3.2680 3.8994 82 120 44
-6.2348 -19.8980 8.2997 92 99 60
5.5844 -0.6504 3.9151 123 96 57
22.3428 -11.7692 8.3009 87 123 23
-11.5331 4.9864 3.9243 67 106 41
-10.3559 -22.4848 8.3111 118 120 59
19.7740 -19.7521 3.9336 64 133 32
15.7583 -11.6377 8.3162 78 97 46
-19.4236 -13.9560 3.9732 93 115 51
21.9120 -11.5863 8.3327 97 117 51
13.4541 -3.3599 3.9804 145 102 60
22.0337 -11.6124 8.3333 73 99 19
19.4942 -10.6190 8.3340 94 102 60
-11.6337 5.0488 8.3399 81 95 60
11.8159 -20.0117 8.3564 76 94 61
-7.4404 -20.3287 8.3883 99 100 22
21.7915 -11.5513 8.3955 113 132 42
20.5297 -13.7025 8.3974 71 90 27
14.3006 0.8406 7.0845 87 92 59
-9.6141 -5.4206 8.4147 86 104 19
20.3299 -12.5986 7.1035 99 128 63
21.5381 -12.9220 7.1043 112 107 57
-3.2474 -9.1296 7.3251 88 94 59
-12.0485 -23.0888 7.1156 92 103 25
20.4490 -13.3736 7.3366 73 116 34
-7.8213 -5.8028 7.1409 121 124 38
21.1814 -13.7446 7.3447 105 139 31
21.5836 -12.8388 7.1504 89 95 60
21.2269 -12.9173 7.3511 112 103 58
-2.1524 3.7069 7.1546 74 92 38
20.7821 -13.8190 7.3892 58 92 20
-6.3552 -18.3167 7.1619 92 99 58
18.6789 -11.3991 7.3970 82 96 57
13.8824 0.2998 7.1681 88 136 33
18.6217 -11.4878 7.3995 80 94 42
-3.4154 -9.6807 7.1728 92 104 50
-3.0740 -9.0588 7.4013 98 102 54
-13.3786 -22.1111 7.1856 83 91 62
-6.9460 -18.9998 7.4087 85 94 33
21.4695 -12.5661 7.1858 89 110 49
17.6774 -10.5263 7.1859 96 93 56
-6.0671 -19.2332 7.4093 90 95 42
-12.0615 -23.0072 7.1963 114 123 18
20.5265 -13.2800 7.4161 72 99 38
-8.4295 -24.4086 7.2007 65 100 57
-7.4277 7.9278 7.4188 78 90 52
21.4459 -13.6594 7.2101 113 136 61
20.8201 -12.4875 7.4212 106 105 54
18.7611 -11.2968 7.2213 112 119 59
20.9090 -14.3205 7.4228 102 90 62
21.1917 -12.7521 7.2361 83 92 58
19.1350 -12.1763 7.4244 96 119 23
19.2596 -10.6357 7.2571 111 107 62
-9.4944 -5.9190 7.2603 99 108 61
13.8779 0.6374 7.4257 65 92 59
21.5366 -13.6086 7.2755 86 107 61
21.1319 -12.8572 7.4315 137 159 18
-15.9820 7.4367 7.2883 72 91 62
20.8303 -13.4928 7.4447 116 130 0
18.9555 -12.1981 7.2932 104 91 41
18.6042 -11.5785 7.4492 81 100 37
-10.8141 -10.3761 7.2966 95 91 47
13.7388 0.7953 7.3039 70 92 59
21.1389 -12.8145 7.3068 95 90 36
-7.1967 7.6684 7.4511 86 100 55
18.6239 -11.2887 7.3072 73 92 54
20.8110 -13.7268 7.4550 100 135 59
21.2881 -12.8034 7.3083 59 90 31
19.2254 -12.3152 7.4573 121 118 61
19.0135 -12.8781 7.3119 119 119 62
14.1572 0.6626 7.3161 79 111 58
20.5524 -13.4134 7.3236 80 109 35
18.5622 -13.7285 6.8902 80 90 61
19.4420 -14.2957 15.2368 107 112 54
-11.3795 -10.6030 6.9014 110 135 19
18.7705 -14.2007 15.2392 81 95 52
19.0068 -14.0681 15.2616 84 94 59
7.8246 -24.8657 15.2850 78 98 44
-13.3339 -22.4641 6.9127 84 90 59
17.9597 -13.8439 15.2897 77 94 63
18.7505 -14.4848 15.2954 75 91 46
4.5142 4.9832 15.2959 68 90 30
-11.3730 -10.3932 6.9165 108 109 52
8.2997 -24.8100 15.2992 97 99 62
8.2898 -25.0562 15.3209 89 91 42
18.8845 -14.2688 15.3376 78 92 59
-4.7204 -7.4907 6.9315 96 96 58
14.0547 -1.4191 15.3474 84 91 58
18.9692 -13.6150 15.3885 79 105 63
4.1274 5.3355 15.3930 75 95 54
17.5650 -9.5088 6.9353 87 91 43
4.2295 4.9304 15.3973 80 105 59
11.0392 3.1466 15.3996 65 95 61
-2.0664 3.7671 15.4126 134 151 29
-11.6280 5.0141 6.9354 71 90 60
-1.9351 3.8596 15.4798 83 96 11
4.2422 4.9917 15.4835 69 92 42
-0.5764 2.2666 15.5352 87 96 63
-1.6241 -1.9823 6.9364 75 94 53
2.4751 4.0851 15.6203 93 101 56
-12.0745 10.1218 6.9394 84 97 62
-2.7928 3.1508 15.7324 133 141 40
15.8501 -7.8632 15.7725 83 98 61
-1.6612 9.4093 15.7831 75 96 55
18.6732 -13.4840 15.7852 87 97 55
-2.8447 3.2012 15.8056 90 100 15
-2.9260 3.2652 15.8382 99 119 53
-12.1020 -10.9942 6.9423 103 118 52
-1.9690 4.1231 15.8551 95 103 37
-9.2681 -21.7188 6.9423 104 105 22
21.5367 -23.3736 15.8574 96 92 58
-2.8379 3.2904 15.9276 89 98 32
17.6706 -10.8856 15.9897 77 100 55
-1.5573 -1.3019 6.9427 73 90 62
17.5126 -11.0535 16.0167 68 98 56
17.7093 -11.0084 16.0254 72 97 59
18.1708 -9.8929 16.0491 87 109 55
19.2206 -12.8041 6.9448 86 91 43
-1.5381 -20.9113 16.0569 86 104 63
17.9471 -10.9411 16.0646 89 105 59
18.0189 -10.8473 16.0661 77 91 54
-0.4558 5.0452 6.9495 73 91 24
18.2951 -9.7819 16.0696 74 94 56
20.7218 -12.5743 6.9586 67 98 55
18.4170 -9.7880 16.0743 75 94 46
18.9306 -9.6912 16.1162 88 102 57
18.8603 -13.5058 16.1264 80 92 63
11.0740 -25.1863 16.1265 98 106 54
-2.6768 3.8727 16.1586 80 92 55
18.9634 -9.7880 16.1810 74 92 50
-3.2933 4.2688 16.2199 77 90 49
20.9673 -13.8691 7.4735 73 101 50
13.1936 -22.5532 16.2387 112 123 1
18.7989 -13.4531 16.2581 95 112 59
22.1390 -23.0378 16.3175 104 96 41
-6.7954 -19.0746 7.4863 106 114 33
18.6112 -10.7518 16.3360 81 94 61
1.6725 5.0567 16.3829 96 114 47
2.5029 4.8046 16.3956 77 91 55
-3.2911 -8.5879 7.4863 79 92 42
2.6986 4.7332 16.4212 77 91 43
19.0465 -13.2799 16.4980 79 99 43
20.2484 -23.1253 16.5348 104 98 61
13.9769 0.6516 7.4895 67 97 30
-0.1032 8.7342 16.5910 83 92 43
22.2312 -22.9561 16.5946 96 92 63
-2.8443 5.6839 16.6093 85 99 49
-6.5743 -19.1094 7.5002 75 92 48
22.2314 -23.6489 16.6455 86 91 53
-2.6478 5.8640 16.6721 75 93 38
22.2517 -23.7431 16.6970 91 92 44
17.6000 -10.9580 16.7021 67 93 52
17.7328 -10.9182 16.7274 75 98 59
-2.5194 5.6047 16.7417 70 98 38
19.3009 -23.4580 16.7515 118 107 56
20.2480 -19.9227 3.9834 58 100 52
-0.3730 8.3281 16.7821 82 90 61
2.7090 4.1243 16.7947 69 90 49
6.0102 -0.8226 3.9919 88 94 61
-2.7360 5.7956 16.8168 76 103 42
-2.9912 5.3762 16.8241 76 90 54
11.4755 5.2020 3.9964 58 98 57
-2.6286 5.6208 16.8632 67 93 30
18.5495 -16.9552 3.9965 102 115 58
2.7325 4.2447 16.8866 77 91 54
4.1594 4.3681 16.8936 86 112 59
4.0736 3.9598 16.8971 63 92 40
3.8162 3.3273 16.9073 63 90 54
0.0453 9.5479 16.9077 83 97 29
-3.4161 3.3839 16.9237 78 91 62
-0.5936 2.2072 16.9295 81 97 56
-2.5865 5.6957 16.9397 70 96 33
-0.0695 7.9109 16.9486 89 101 40
18.3373 -11.9860 16.9511 89 99 63
17.6627 3.4051 7.7046 104 144 34
2.9526 3.9951 16.9607 73 92 61
-2.6062 5.5326 16.9977 75 104 38
-2.9378 5.1472 17.0106 77 95 48
20.7756 -12.4303 7.7153 86 96 23
-2.5070 5.7121 17.0212 69 91 52
-2.4725 5.6075 17.0298 63 93 30
17.2763 -11.6903 7.7164 79 90 53
-8.7327 4.3305 17.0457 91 90 63
18.4526 -11.9669 17.0489 79 95 61
-2.6001 5.4497 17.0568 83 108 44
10.5630 -18.0577 7.7170 75 92 61
-2.6854 5.3764 17.0624 73 103 33
20.6673 -13.2635 7.7256 86 123 49
18.6768 -11.4715 17.0732 76 91 53
-9.8756 7.1933 17.0840 87 93 63
-2.4850 5.5395 17.1059 66 103 26
5.3056 6.1878 17.1163 79 103 48
5.1707 6.5375 17.1526 80 91 57
-0.6985 2.1802 17.1663 88 92 63
-2.6337 5.5898 17.1677 64 94 32
5.2654 6.2421 17.1937 85 116 52
5.2753 6.1209 17.2043 73 93 51
-2.7828 5.4081 17.2197 72 98 41
19.5066 -13.6244 17.2554 142 155 52
12.0579 -21.7605 17.2707 101 114 56
4.3969 7.0109 17.3391 69 94 59
20.4533 -14.3166 8.7265 104 135 63
20.8299 -22.4226 17.5103 94 94 54
9.0104 -10.4704 17.5231 88 91 61
1.1779 8.4607 17.5393 78 96 58
-11.5320 5.1583 8.7321 65 93 59
5.5733 6.2558 17.5434 69 98 55
11.4304 -10.9062 17.5612 93 104 57
18.9932 -10.9475 8.7454 88 112 31
1.0349 8.5074 17.5715 87 102 58
5.6121 5.9306 17.5737 76 96 61
1.2815 8.3830 17.5745 88 101 61
0.1556 8.7486 17.5869 87 98 56
5.7000 6.0127 17.5993 76 94 59
0.7307 8.4842 17.6389 79 90 53
0.9959 8.3133 17.6401 76 90 40
18.0469 -9.6317 10.3570 102 93 28
0.4898 8.2105 17.6550 87 105 63
-11.4191 -21.4331 10.3687 98 109 57
-1.3349 -17.8801 17.6689 95 93 58
5.4432 6.3717 17.7012 77 111 57
17.8545 -9.5100 10.3783 94 90 53
20.5738 -21.8321 17.7440 101 93 60
-1.0036 5.2705 17.7846 85 97 63
2.3193 -0.9526 17.7951 78 96 49
8.8483 4.4078 10.3824 127 143 14
4.9717 7.1655 17.8278 64 91 43
-0.2774 3.3317 17.9259 73 91 55
3.4625 7.1875 17.9826 71 97 54
15.1033 -13.4523 10.3832 100 105 52
4.0584 7.0556 18.0017 71 91 57
17.5910 -11.3141 10.4050 101 93 53
4.9137 7.3828 18.0114 92 106 42
5.3682 8.2366 18.0177 99 122 43
4.5023 6.7091 18.0201 85 101 54
3.9231 6.9692 18.0224 75 92 54
-0.8838 4.6348 18.0316 84 97 44
3.7166 6.9178 18.0522 88 105 63
3.4224 6.9201 18.0541 82 102 62
10.5583 -7.0161 12.2879 83 97 63
3.5660 7.0226 18.0650 68 90 42
5.7944 1.0582 18.0654 92 92 62
-0.9035 4.7940 18.0738 80 91 47
-3.4027 6.2829 18.0799 80 97 55
-0.2641 3.0371 18.0881 76 91 63
-0.6457 3.5656 18.0911 78 96 53
0.1095 3.1116 18.1440 77 94 63
0.0063 2.9714 18.2097 71 92 53
5.5151 7.2558 18.2120 55 92 58
-0.3789 5.0262 18.2296 85 95 57
-0.0107 2.8744 18.2435 77 101 56
-0.4799 5.3958 18.2474 90 104 62
-0.4788 5.1906 18.2548 88 102 54
-3.3457 6.3342 18.2600 75 104 48
-0.3908 3.6196 18.2614 66 92 27
-5.8025 -14.0927 12.3125 88 92 54
-0.7563 5.4892 18.2798 83 97 59
8.4245 -2.7417 18.3019 90 92 59
-0.2219 5.1703 18.3087 75 93 38
4.3929 10.1268 12.3389 69 92 49
0.1559 5.2293 18.3101 91 90 42
5.4737 6.8083 18.3469 82 102 61
8.3300 -1.8659 18.3501 85 103 52
-14.5837 -5.4946 12.3537 101 94 49
5.5670 6.7594 18.3519 63 90 48
5.6381 6.4499 18.3838 58 98 48
-3.4284 6.7547 18.4182 70 93 63
5.2598 7.5263 18.4195 65 99 60
5.7025 6.7654 18.4225 94 119 52
13.7172 -18.9471 18.4237 107 95 46
-3.4977 6.5380 18.4506 73 95 49
20.1113 -22.2075 18.4509 107 95 49
-0.2488 4.6845 18.4512 86 103 50
11.6571 -6.7267 12.3832 80 92 62
-3.4806 6.4333 18.4671 79 94 33
4.9315 7.5456 18.4679 58 104 39
-0.2295 4.7924 18.4714 93 101 57
17.2202 -23.9144 18.4722 89 91 28
-3.6005 6.3498 18.4772 75 106 49
-0.2853 5.3803 18.4798 84 109 41
-0.3715 4.6787 18.4804 105 114 63
4.5801 7.8373 18.4825 85 102 34
4.8577 7.9413 18.5020 73 119 50
-0.1601 5.3667 18.5152 81 97 58
11.1481 0.3278 10.4081 97 94 45
4.8750 7.6271 18.5166 55 96 39
0.4382 2.4186 18.5292 121 141 3
4.7613 8.0186 18.5443 75 120 54
0.9512 6.3162 18.5448 75 94 52
5.1182 7.5382 18.5469 60 91 53
-0.1619 5.6396 18.5478 84 100 55
-0.1995 5.7957 18.5584 79 98 47
1.0950 6.2087 18.5619 74 94 60
4.9211 7.5359 18.5772 63 94 44
1.0347 6.3023 18.6279 69 91 54
9.0652 2.7113 8.7522 74 90 57
3.7252 6.9941 18.6637 82 99 63
-3.7514 7.1913 18.6682 72 96 60
-3.7797 7.3840 18.7013 67 90 46
19.2909 -11.2442 8.7526 80 100 40
1.0662 -19.6808 18.7248 102 93 62
-3.7686 7.2846 18.7301 71 95 60
20.2005 -12.4465 8.7642 87 93 43
-3.5613 7.2982 18.7502 69 95 48
17.8643 -22.6838 18.7732 128 126 58
9.0667 2.5270 8.7648 95 95 45
-3.6416 7.3360 18.7969 68 96 44
3.9626 7.5120 18.7984 81 103 63
-3.6910 7.4386 18.8185 73 98 56
4.1174 7.8547 18.8194 66 104 51
21.7563 -9.9572 18.8389 83 101 44
4.0469 7.4728 18.8552 67 93 55
4.0051 7.8216 18.8899 59 94 50
-3.6316 7.5128 18.8923 81 108 57
-3.6356 7.2882 18.9103 68 100 46
1.1594 -19.8103 18.9225 117 104 63
-3.6899 7.4164 18.9259 67 95 46
20.4159 -13.0750 7.7285 104 135 27
1.6213 -20.1459 18.9605 106 98 60
-3.5970 7.3986 18.9743 76 103 52
-8.3846 6.4416 19.1422 83 91 48
1.7657 -20.4192 19.2059 96 93 63
18.1771 -22.4099 19.3213 120 121 52
13.4879 -19.4237 19.4158 84 91 62
17.1973 -25.3431 19.5517 92 93 60
4.3733 -25.4366 19.7934 94 90 51
18.2719 -2.4331 4.0040 83 117 53
16.8999 -11.9670 19.9843 95 97 58
10.4790 -24.0451 20.5876 96 98 47
0.8980 4.1671 20.6816 77 95 60
6.2111 -0.7431 4.0322 102 96 59
0.9671 4.1845 20.7622 74 92 52
1.0391 4.2541 20.7930 73 93 42
2.5390 5.7717 20.8084 83 93 46
10.2959 -24.2492 20.8140 127 129 53
10.4264 -24.3130 20.8392 131 134 60
15.3943 -20.5893 20.8652 110 104 28
10.4439 -24.1417 20.8952 129 130 51
16.8222 -24.4692 20.9094 87 94 63
16.9694 -23.1320 20.9214 108 105 45
2.3363 -18.6616 20.9322 114 96 54
19.8689 -12.9853 20.9407 82 91 63
16.7625 -23.3339 20.9435 139 136 59
17.5548 -24.7516 20.9737 102 101 60
16.6566 -24.1855 20.9885 85 91 44
15.5139 -22.7365 21.2218 79 90 54
16.5094 -25.4300 21.2633 95 95 30
-9.0561 -0.7567 21.2665 117 112 55
2.3258 4.3960 21.3278 75 95 62
1.9374 -18.7233 21.3355 100 98 50
16.8988 -25.3329 21.3482 98 105 46
11.6596 -23.6180 21.3516 127 142 45
9.7871 -23.0291 21.3746 96 100 41
2.2875 4.5738 21.3928 75 91 58
16.7350 -24.7266 21.4041 80 90 41
16.0400 -22.5685 21.4324 100 108 46
16.4594 -24.9405 21.4533 95 101 44
20.7367 -13.4359 7.5009 90 116 57
17.5094 -25.1925 21.4913 94 98 58
17.3434 -25.2351 21.5264 100 101 48
4.4624 6.0770 21.5604 64 90 47
4.5852 6.0855 21.5787 112 119 62
4.5171 6.1121 21.6492 69 93 45
16.4469 -25.3374 21.7674 105 109 26
17.1496 -20.0868 21.7808 80 97 60
16.4183 -25.4111 21.8313 90 104 38
20.4545 -12.5956 6.9633 85 103 52
16.2864 -25.3201 21.8968 141 150 24
16.2067 -25.3114 21.9747 89 102 48
17.0357 -20.4349 21.9775 144 147 43
17.0570 -20.2918 21.9926 89 96 53
12.0640 -22.2366 22.0285 96 106 58
-10.0424 -1.0017 22.1259 87 90 39
16.6949 -25.3801 22.1391 143 141 28
-10.2745 -1.0140 22.2350 102 99 59
13.0002 -19.9672 22.3471 102 90 58
-0.4091 -13.1168 22.3519 121 132 62
9.9423 -24.5610 22.3905 120 123 40
9.9661 -24.3524 22.4261 95 101 37
14.2634 -19.6092 22.4534 106 99 18
16.5388 -25.3340 22.4618 123 138 59
14.3590 -19.6363 22.4678 119 122 50
1.6285 4.2058 22.8028 77 91 49
-8.9853 -6.0614 6.9706 140 173 7
16.5291 -25.0269 22.9459 144 153 56
17.1371 -25.2862 23.0501 147 155 30
10.6767 -10.8632 23.1346 107 115 53
10.5852 -10.9383 23.2307 117 120 57
1.7322 -5.8703 23.2810 97 94 63
18.2965 -24.7438 23.3477 115 113 52
17.2578 -25.2183 23.4014 139 142 42
17.1643 -25.1407 23.4129 152 157 13
20.6535 -13.2714 7.5062 112 140 51
-11.7014 -1.3255 23.5998 90 97 31
10.6827 -25.3804 23.9047 121 122 43
9.4601 -18.9682 23.9142 107 105 59
20.7473 -13.5654 7.5108 99 123 40
9.1813 -19.1188 23.9594 91 94 58
8.8804 -18.7451 23.9629 97 96 54
18.9879 -13.8187 24.0007 101 96 59
17.8639 -25.1064 24.0684 152 156 27
-10.7945 -11.2710 7.5248 102 92 59
15.5764 -24.5942 24.6086 146 145 30
16.3662 -23.2121 24.7862 85 102 34
18.8613 -25.1823 24.7959 163 161 36
16.0756 -23.1738 24.8979 95 93 32
15.9814 -23.3798 24.9329 138 139 42
15.8084 -23.1266 24.9469 94 97 49
-11.5716 4.9936 4.0366 93 119 54
14.4871 -25.3303 25.1131 102 105 27
11.1779 -20.2420 4.0522 103 107 63
-4.6161 -5.1932 25.2008 113 109 62
17.9508 -12.1243 4.0550 39 94 54
13.6510 -23.8329 25.2147 89 100 59
16.0130 -25.1819 25.3100 163 171 26
-4.2161 -25.2108 4.0662 67 92 25
15.9519 -25.0981 25.3898 124 127 55
-4.4432 -4.3768 25.4363 83 91 56
16.5452 -25.2987 25.4832 147 148 63
16.7104 -25.3322 25.5117 165 169 22
19.3469 -24.9118 25.5485 136 127 35
16.3325 -25.3186 25.6622 152 151 36
-6.8661 6.4164 26.0763 78 100 54
-2.2389 3.0382 26.6331 73 96 56
13.0200 -12.9953 26.7618 88 101 39
15.9932 -24.4914 26.8321 116 109 47
16.7779 -24.3185 27.6432 123 123 52
17.0536 -24.6452 27.6516 91 94 39
18.5491 -25.3046 29.0896 98 92 16
18.3963 -25.1975 29.1194 130 112 11
6.8156 0.1406 13.5797 94 95 34
7.1495 0.4513 13.5810 76 92 43
9.1109 -18.9223 13.6018 113 119 49
14.4820 -18.0288 13.6114 116 120 55
9.1718 -19.0102 13.6157 94 98 48
6.6343 0.3314 13.6203 98 117 52
7.0238 0.2055 13.6371 83 92 38
6.9756 0.3329 13.6451 93 105 41
9.3297 -19.3612 13.6468 112 111 60
9.2436 -19.3024 13.6482 142 142 27
8.6240 -19.2000 13.6768 84 92 21
9.2461 -19.4004 13.7077 124 126 58
-0.8620 6.7052 13.7435 87 92 62
-4.9615 -7.1443 13.7707 99 96 48
3.3198 5.1142 13.7950 77 90 43
-15.6533 -2.7442 13.8284 125 141 32
3.2557 5.2198 13.8616 87 99 54
-5.8009 -23.2585 7.7327 90 95 47
-15.6368 -2.6585 13.8825 151 172 18
8.5058 -19.5146 13.8907 84 105 3
6.0158 9.2300 13.8948 76 103 9
6.1825 -21.0851 13.9444 113 102 52
12.9919 -8.3772 13.9852 79 94 49
19.2244 -11.3569 8.7652 81 100 26
6.4228 -21.1281 14.0087 106 98 60
-1.3612 -23.4950 14.0457 62 90 33
-15.4658 -0.9533 14.0458 165 173 59
20.1761 -12.6425 8.7729 116 105 61
-15.4803 -0.7746 14.0461 117 134 15
-15.3654 -0.9967 14.0541 109 115 12
18.2209 -12.9354 14.0613 90 102 62
6.9804 7.9277 14.0874 71 103 63
-15.5767 -0.8465 14.0924 118 127 11
7.0286 8.5451 14.0944 84 110 6
-15.3665 -0.7624 14.0984 140 150 53
6.8611 8.7734 14.1138 65 95 11
6.9622 8.6204 14.1256 73 98 7
4.9171 7.9824 14.2240 78 93 26
6.8865 9.2193 14.2312 68 95 62
-15.4586 -0.1865 14.3052 119 141 4
-8.8063 -6.2339 6.5796 120 139 46
11.6614 -23.8874 14.3444 94 97 54
-15.2148 0.3455 14.3458 99 98 28
-0.8358 0.7764 6.5872 120 100 57
4.2048 7.4062 14.3809 78 96 58
-11.7564 -8.8644 6.6014 92 102 32
-15.3391 0.2069 14.3963 129 138 37
7.1215 8.1705 14.4043 77 96 33
-0.8033 -23.2551 14.4111 107 135 45
17.6220 -10.5057 6.6037 91 92 52
-15.3817 -0.0738 14.4504 98 99 21
4.6164 -12.4579 14.4844 110 118 54
5.9627 -21.7635 14.5059 106 109 25
6.4553 -20.8788 14.5120 90 91 56
5.2860 5.8714 14.5183 71 94 39
-4.4614 -8.3309 14.5292 94 90 63
5.6754 6.2875 14.5383 78 97 63
-2.8351 6.4445 14.5395 71 90 50
4.9088 6.8508 14.5489 87 91 58
5.8190 -21.8538 14.5539 141 168 4
5.8120 6.3876 14.5565 76 105 26
5.7826 6.2861 14.5687 69 96 38
4.2434 7.2840 14.5804 77 90 52
5.1946 5.8194 14.6209 94 116 50
4.0843 5.7369 14.6221 76 91 54
-17.1946 5.9909 14.6254 94 105 62
6.1743 6.5982 14.6293 68 93 42
6.8947 7.2224 14.6456 64 97 56
4.4075 7.2469 14.6702 88 99 53
11.4475 -24.9884 14.6705 97 95 59
5.1627 6.3327 14.7013 86 101 57
4.1674 5.9206 14.7123 77 101 41
3.5975 5.3560 14.7145 83 93 58
5.0218 6.5112 14.7202 61 90 34
5.4066 6.2248 14.7236 65 99 47
15.7415 -10.5918 14.7277 87 93 59
4.7680 6.2601 14.7543 77 96 48
-0.7273 3.1239 14.7946 89 97 59
4.3602 6.2144 14.7967 76 96 59
4.1283 5.9023 14.8040 69 94 38
13.6644 -6.6987 14.8127 74 90 51
18.5364 -10.3075 14.8133 75 91 44
5.5749 6.2298 14.8177 64 90 46
5.7099 6.2564 14.8186 87 116 55
1.1699 3.9362 14.8242 86 98 52
6.2928 6.6504 14.8256 120 143 49
6.0319 7.0442 14.8271 58 91 38
4.7779 6.5277 14.8344 66 96 41
17.1360 -14.0108 14.8412 89 104 44
5.8148 6.8125 14.8446 69 101 55
-11.7055 -23.0928 14.8490 92 101 47
17.1608 -13.9040 14.8499 95 109 54
6.1169 6.6216 14.8706 96 135 61
5.9219 7.0806 14.8798 61 106 52
18.0321 -14.2323 14.8919 81 91 40
4.9744 6.4272 14.8920 72 91 58
6.2134 6.5876 14.8931 74 104 52
4.8695 6.4816 14.9045 77 106 51
17.4296 -13.8701 14.9059 95 110 59
5.7740 6.7183 14.9077 70 94 54
4.4812 6.3641 14.9097 71 106 50
5.8552 7.1785 14.9209 59 98 38
6.3240 6.9752 14.9252 72 115 48
-17.5294 -2.3423 14.9270 98 103 52
17.1483 -13.9574 14.9386 75 91 38
3.7190 5.2051 14.9436 77 92 63
5.3425 6.0947 14.9452 77 111 59
11.7498 -23.6736 14.9460 85 90 45
5.1136 -11.5491 14.9472 81 110 50
-11.6850 -23.1006 14.9661 90 106 48
4.8810 6.3965 14.9690 73 98 56
5.9970 6.6512 14.9788 72 103 55
-1.6747 1.6992 14.9807 93 104 58
-11.7821 -23.0391 14.9891 88 101 58
0.4106 3.5515 14.9951 96 105 63
17.3711 -13.9498 15.0021 86 100 55
3.9576 5.1808 15.0031 74 92 57
3.9832 5.0727 15.0104 77 94 57
-0.4887 2.9793 15.0208 90 99 58
8.9754 3.9781 10.4287 155 177 44
19.2834 -14.0429 15.0222 85 103 42
9.0537 4.0689 10.4616 130 142 30
-1.3552 2.7632 15.0371 87 91 29
9.1296 3.9777 10.4693 96 115 27
5.2157 6.2183 15.0640 78 113 48
9.0697 4.5530 10.4787 83 103 41
19.3750 -13.6878 15.0727 82 105 49
14.8307 -13.7185 10.4850 110 149 50
-0.3944 2.9877 15.0883 78 90 51
19.5319 -13.7721 15.0983 78 95 40
12.1749 -11.1018 10.4895 82 95 46
-18.5635 -5.6323 15.1028 93 94 55
14.8987 -13.6403 10.4935 80 112 34
14.4803 -13.5680 10.4950 77 96 50
14.5855 -13.5802 10.4956 148 155 56
15.0838 -13.4275 10.5115 86 95 45
14.3801 -13.5570 10.5148 91 118 55
-4.4851 -14.6490 12.4960 81 91 57
9.2329 4.1354 10.5229 89 107 30
3.7154 5.0634 10.5414 78 90 51
7.0928 -9.7610 10.5486 96 95 35
5.9918 7.8670 12.5359 81 94 57
5.4745 6.6491 10.5691 78 92 17
-16.2703 0.4098 12.5630 114 118 28
14.9069 -13.5672 10.5819 73 90 24
4.7005 5.3590 10.5840 79 98 38
4.8223 5.3126 10.5885 85 97 18
14.5475 -13.4970 10.5905 72 103 46
18.1300 -9.8171 10.5972 93 92 60
5.1703 6.3181 10.6010 82 97 56
4.4422 -20.4781 10.6020 71 97 43
-16.1885 0.4670 12.5746 115 106 41
-10.6977 -21.4729 10.6041 93 96 43
-10.5394 -21.5704 10.6485 87 94 42
-0.0343 -3.3012 10.6548 101 105 59
-1.4063 7.6820 12.5910 86 93 56
5.4821 5.4485 10.6764 91 97 41
5.0529 4.8240 10.6931 81 97 29
5.0954 -21.0262 10.7244 77 96 51
5.7424 6.2935 10.7277 86 95 63
-16.4626 0.3297 12.6370 128 114 44
19.5644 -7.9405 10.7382 100 93 63
-4.7650 -15.0846 12.6380 102 92 61
-3.4079 -12.9021 10.7763 88 93 55
-1.4021 9.1074 12.6478 103 97 1
-0.3822 -12.1854 10.7806 98 108 50
-18.0821 8.1185 12.6797 115 93 63
-16.1869 -19.2051 10.7878 82 96 56
-17.9203 8.0060 12.7100 96 93 61
5.0645 6.5002 10.7896 65 90 41
-1.1096 7.6578 12.7199 113 120 40
-1.3897 3.0083 10.7898 93 107 61
13.9077 -13.6336 10.7904 77 100 43
13.5710 -13.4673 10.7911 141 168 57
-17.3435 0.9132 12.7389 106 106 47
-16.1069 6.8997 10.8310 114 91 59
-14.3471 2.6548 12.7877 85 103 53
18.1743 -5.2184 10.8353 87 97 56
18.0900 -12.3066 12.8052 96 94 62
-17.4992 6.9890 10.8741 117 97 55
14.7008 -12.6714 12.8055 80 102 58
14.7399 -12.5729 12.8084 67 90 57
-13.9694 1.3687 12.8088 102 101 47
5.7080 6.3043 10.8822 68 90 35
3.5675 -18.7658 12.8970 87 121 57
5.2152 6.5196 10.8832 90 113 57
4.3928 9.0131 12.9237 68 94 39
4.9716 6.5046 10.8849 88 98 62
-1.0470 -23.1499 12.9248 77 92 51
5.4470 6.3110 10.9006 78 100 23
-14.2305 2.4562 12.9319 86 96 52
14.1604 -13.2880 10.9030 91 95 57
8.2861 -2.0444 12.9382 87 98 50
4.9748 6.2141 10.9130 103 123 58
8.4226 -2.1064 13.0012 82 94 56
13.8428 -13.5217 10.9189 117 159 32
4.5700 9.4052 13.0023 76 100 52
5.3537 6.3751 10.9191 68 90 41
-1.6816 -8.6138 13.0208 105 105 53
-14.7901 -20.8209 10.9232 89 100 49
4.7580 9.9113 13.0482 59 90 43
17.6275 -11.4573 10.9351 98 93 57
-3.2794 8.9919 13.1199 86 96 20
-1.6397 -3.6451 10.9398 97 96 50
9.2619 3.1880 13.1689 77 93 63
13.2838 2.1635 13.2122 78 97 59
13.9280 -13.8031 10.9418 57 94 43
-12.5018 3.0527 13.2175 84 101 57
5.2304 5.8614 10.9458 79 93 43
-12.6823 3.2485 13.2282 87 96 59
13.9753 -13.5918 10.9714 99 118 54
-3.2622 9.0294 13.2304 117 137 24
14.1333 -13.9052 10.9837 108 125 50
10.8304 6.9254 13.2653 87 104 35
13.8754 -13.5610 11.0125 101 134 51
7.1492 -20.9654 13.2872 114 99 58
5.8229 6.2825 11.0202 80 101 60
11.8356 -9.3349 13.3066 70 90 62
5.3135 5.8252 11.0500 83 112 60
7.5763 0.6889 13.3245 94 95 49
5.0549 -21.2467 11.0610 69 90 39
14.2954 -13.3841 11.0686 65 104 53
-12.2287 -12.5366 11.0696 82 90 45
6.9295 0.5191 13.3656 109 113 60
-13.5389 6.1662 11.0725 88 90 62
17.7720 -5.4719 11.1097 88 102 56
6.3302 -21.0173 13.3764 98 94 62
-14.3107 -21.0545 11.1100 90 90 50
-7.6096 -25.4505 11.1107 78 95 61
7.0422 0.5468 13.4050 97 104 54
5.3969 5.8175 11.1171 79 92 46
11.8743 -9.2808 13.4127 75 90 61
15.2549 -12.4955 11.1224 96 95 53
6.8993 0.3166 13.4322 76 92 60
3.1315 4.1126 11.1310 77 92 52
-13.3004 1.8268 13.4363 92 92 58
4.9360 6.2910 11.1683 71 92 51
5.0318 7.8931 13.4682 80 95 57
-13.0870 -0.1525 11.2653 129 98 55
12.1361 -9.2277 13.4871 70 91 60
-2.2499 -14.1531 11.3354 88 97 61
15.7882 -12.5449 11.3359 102 108 50
6.6864 0.2180 13.5489 83 102 57
20.1562 -10.9583 9.3142 102 103 45
-0.0217 3.1606 15.1245 85 94 60
19.2491 -10.3896 9.3296 99 110 44
10.2064 5.5563 9.3912 108 115 40
9.6997 6.5301 9.4012 92 120 16
10.5387 4.5791 9.4080 85 94 46
19.3713 -10.6117 9.4097 86 96 46
10.4748 4.3796 9.4114 81 90 36
10.5830 4.7656 9.4126 88 91 38
20.4172 -12.2404 9.4177 113 118 52
19.6914 -10.7666 9.4243 89 113 42
20.2395 -14.6511 9.4381 132 95 63
5.1218 6.1820 15.1274 69 100 38
20.0668 -14.9894 9.4408 142 143 58
15.5770 -17.1046 9.4578 82 97 48
-4.8164 6.3866 9.4696 99 90 60
19.3544 -14.2867 15.1436 92 105 63
19.9131 -10.8362 9.4750 108 119 39
19.1248 -11.0178 9.4792 83 95 55
9.2998 4.6056 9.4810 96 102 53
5.1602 6.0896 15.1523 78 108 46
10.1371 5.5531 9.4897 76 92 62
10.4020 4.3070 9.5085 68 90 43
19.2133 -10.5742 9.5166 108 144 62
4.0622 4.7987 15.1586 74 90 48
18.8438 -10.7574 9.5228 98 92 60
5.2374 6.1572 15.1674 81 109 55
-12.4968 -6.0644 9.5390 108 111 62
9.3494 4.4027 9.5442 74 90 62
19.8414 -10.8046 9.5450 91 111 13
-1.0106 2.4934 15.1680 128 143 61
19.3633 -11.4761 9.5510 100 105 47
18.7106 -14.4225 15.1944 87 96 56
10.1861 5.3781 9.5529 70 92 27
19.9008 -11.4382 9.5572 109 114 51
19.4225 -11.0324 9.5595 81 105 36
-8.1267 -21.3367 15.2068 91 95 42
10.1397 5.1203 9.5615 66 92 1
19.3836 -10.8492 9.5617 69 99 31
19.2568 -11.4974 9.5655 64 98 27
19.7862 -11.4496 9.5667 79 99 23
19.2427 -11.1880 9.5724 90 114 36
9.9904 4.8013 9.5742 89 91 31
19.4890 -10.9224 9.5763 73 94 39
19.1180 -11.0339 9.5792 113 140 59
-11.8704 -8.8409 6.6367 112 130 49
2.1920 4.4236 9.5800 93 107 58
2.3107 -18.0068 6.6607 88 91 62
-11.5941 4.9855 6.6624 74 105 55
13.6705 1.7840 6.6666 81 106 63
8.8457 2.3701 8.7733 84 102 55
9.3593 -2.6239 9.5818 109 116 49
-4.4048 -25.1127 8.8025 84 93 40
10.0750 2.4608 8.8047 98 92 32
-8.7355 -21.3783 9.5877 89 96 61
9.3262 3.2618 8.8107 83 91 48
10.1181 4.9518 9.5886 100 110 45
19.7711 -11.6556 9.5897 78 100 12
10.0206 5.1882 9.5920 107 99 57
19.5419 -12.5851 8.8179 159 157 44
18.8358 -10.6743 9.5921 98 92 56
19.8682 -11.5601 9.5991 78 91 13
9.8747 4.7473 9.5998 85 90 60
9.5375 4.7592 9.6030 81 91 34
2.5330 -18.0610 9.6052 94 102 42
-4.1845 -24.9602 9.6232 94 105 60
-10.0191 -25.4370 9.6234 94 95 50
9.8378 4.6508 9.6240 97 97 57
18.4116 -13.2324 9.6240 97 94 42
19.4572 -11.5794 9.6329 66 95 27
10.0968 5.8094 9.6422 69 90 61
-11.5323 5.1370 9.6460 83 93 61
18.7208 -13.0212 9.6632 99 97 50
19.1113 -10.9816 9.6752 66 91 31
18.9408 -13.7381 9.6859 88 103 50
18.8569 -10.6102 9.6869 105 93 63
11.5152 -19.7797 7.7344 76 92 45
19.8286 -11.6942 9.6938 85 112 40
10.6634 -4.0595 9.6984 91 105 58
-16.8318 4.9442 9.7001 139 123 63
17.5177 -13.0889 7.7430 80 95 24
19.2498 -11.3613 9.7033 78 121 8
10.6896 -4.1675 9.7068 92 117 57
10.2409 5.0356 9.7326 86 93 41
17.8989 -13.2891 7.7599 96 122 45
-7.0497 8.2934 2.1807 64 104 52
20.8581 -13.2559 7.7654 74 94 38
-5.9610 -22.2635 2.2132 105 90 62
20.9868 -13.3337 7.7712 87 132 55
-17.8366 -24.1422 2.2528 96 96 37
-19.4576 -17.0401 2.2655 101 111 58
-7.4104 1.5593 2.2716 70 94 28
-17.1317 -24.7458 1.0391 100 92 54
-6.1253 -10.8115 2.3271 129 91 55
-20.5457 -11.9131 1.1173 79 92 44
-18.0377 -23.6698 2.3394 96 92 51
-19.5120 -20.7535 1.3394 98 101 54
-17.6384 -24.1121 2.3470 116 112 55
-19.4106 -13.7022 1.4429 76 93 42
-5.4346 4.9536 2.3616 84 91 59
-18.3151 -25.1758 1.5288 106 98 57
-7.5018 1.9115 2.3664 73 90 49
-18.3268 -25.0593 1.6131 107 98 50
-19.3553 -16.9989 2.3736 86 92 48
-18.2561 -25.1727 1.6137 96 90 48
-7.3127 1.1911 2.3765 79 100 51
-16.7042 -24.5003 1.6469 96 95 63
-5.3714 1.1424 2.4001 95 90 52
-18.3386 -24.2332 1.7188 147 136 59
-7.4237 6.8420 2.4192 76 100 52
-19.5625 -13.6559 1.7545 70 91 50
-18.0673 -17.0216 2.4492 84 93 56
-17.4724 -25.2539 1.7897 87 90 48
-17.6624 -25.0062 2.4712 79 103 37
-18.6086 -24.2801 1.7966 102 95 48
-18.2874 -24.2154 1.8276 99 91 34
-5.6261 1.3736 2.5005 83 119 52
-7.1346 7.6077 1.8390 97 106 49
-6.9559 6.6044 2.5007 85 105 53
-9.2038 0.6835 1.8506 80 107 24
-5.7588 1.5723 2.5196 76 93 51
-18.4484 -24.2765 1.8546 114 105 54
-5.6412 1.4849 2.5231 70 103 25
-19.5637 -13.7192 1.8580 83 102 55
-17.0099 -18.7537 2.5353 96 102 52
-18.5086 -24.9676 1.8599 98 92 40
-4.7839 -14.3223 2.5933 132 94 63
-18.8136 -24.3842 1.8790 110 97 51
-6.3114 -22.7493 2.6225 117 94 60
-18.5840 -24.9025 1.8909 109 105 51
-5.4812 1.4071 2.6245 102 137 55
-7.3206 -6.8046 1.9103 116 98 55
-7.0573 6.7714 2.6597 58 93 22
-18.5641 -24.3148 1.9156 105 94 43
-11.5108 5.0214 2.6838 68 92 38
-7.2248 3.7104 1.9332 58 92 63
-6.9728 6.7249 2.6872 84 100 50
-11.6671 9.8950 1.9451 79 102 57
19.7926 4.4608 2.6946 90 98 59
21.7244 3.7166 2.7360 78 94 57
-4.0792 -14.4283 2.8332 112 92 54
7.9770 9.2798 2.8517 117 90 57
11.8130 -18.4019 4.0800 119 156 57
12.9040 4.8628 2.8574 103 91 62
-3.7784 -24.1811 4.0936 70 90 34
8.3889 8.9550 2.8910 76 91 52
17.9137 -15.9592 4.0938 139 106 60
22.0908 4.3615 2.8952 102 91 59
-17.3534 -24.6697 4.1031 89 94 42
-2.2801 9.2291 2.9019 114 106 60
19.2975 -7.4486 4.1091 91 111 49
-11.5005 4.9911 2.9277 66 94 39
11.4817 -18.1347 4.1102 61 102 43
-10.4409 -3.0142 2.9328 80 109 56
6.1034 -1.1938 4.1138 64 90 40
13.9597 5.8582 2.9460 71 115 60
6.2600 -0.7167 4.1168 87 98 47
-15.6470 7.1396 2.9855 67 96 61
14.5311 5.7395 3.2989 71 90 53
-4.0483 -14.5687 2.9960 113 92 62
-19.5383 -13.6343 3.3008 85 102 60
-6.7262 -19.0086 7.5271 103 119 33
14.4413 5.6853 3.3277 63 130 41
-19.4048 -25.4625 -0.8027 117 107 55
15.6120 5.4170 3.3327 94 119 55
-19.9482 -25.0293 -0.7791 94 92 38
15.6807 5.5033 3.3400 93 119 53
-20.9329 -20.4399 -0.7158 122 92 62
-19.5160 -25.4381 -0.6845 119 102 56
14.4162 5.9449 3.3445 75 117 61
-20.7390 -20.6279 -0.6313 118 90 58
-20.7891 -20.4780 -0.4800 113 95 56
14.8590 5.1337 3.3764 80 104 60
-20.6265 -20.6141 -0.4378 113 91 54
15.0067 5.1345 3.4136 74 116 57
-20.0806 -25.1974 -0.3576 104 103 43
-10.4508 -3.0078 3.4155 78 98 61
-20.3435 -20.3915 -0.2353 113 92 60
-3.9158 -14.5697 3.4293 117 96 57
-20.0947 -25.2095 -0.2226 111 109 56
15.2242 5.5919 3.4365 92 112 42
-19.7396 8.8329 -0.1727 85 100 63
-3.2484 1.5401 3.4471 123 90 51
-20.0320 -20.4025 -0.1294 114 92 61
21.5428 2.5206 3.4523 106 121 62
-20.6022 -25.2243 -0.0795 153 142 47
-3.2740 1.6627 3.4622 128 160 50
-19.4594 2.9374 0.0276 89 112 52
-2.4112 -16.5947 3.4710 62 90 61
-20.6745 -25.2227 0.0421 130 115 56
-11.5580 5.0107 3.4905 75 102 36
-20.5409 -25.2712 0.0542 135 115 44
-3.2576 1.4089 3.5393 98 119 58
-20.1273 -25.2430 0.0675 103 90 35
-17.6099 -22.0644 3.5432 108 116 57
-20.8475 -25.0592 0.0954 112 105 60
-3.5894 -15.6202 3.5432 102 96 62
-21.4898 -12.7561 0.1899 123 136 62
-18.1727 -20.1882 3.5588 90 99 49
-20.6505 -25.2196 0.2354 132 110 49
-3.9498 -14.6905 3.5675 128 99 58
-20.7975 -24.8917 0.2693 152 132 56
20.2169 2.6353 3.5939 72 100 56
-21.2219 -19.7880 0.2807 105 114 61
-15.6808 7.1104 3.5973 72 93 62
-20.8547 -24.8123 0.3003 136 117 54
-17.5519 -21.5103 3.6216 95 103 54
-20.8779 -17.8095 0.3131 105 115 57
-19.4384 -13.8968 3.6404 79 105 56
-20.8847 -20.0599 0.3630 101 118 54
-17.6357 -19.8432 3.6734 82 92 46
-19.8421 -15.2822 0.5302 80 90 49
-2.4461 0.5767 3.6750 57 92 62
-21.2362 -20.6300 0.7435 108 98 56
18.2313 -3.2809 3.6759 82 98 58
-7.5957 -25.0159 0.7495 126 91 54
-11.5025 4.9989 3.6921 61 105 35
-17.2719 -24.8927 0.7697 105 94 45
-17.5348 -19.8995 3.7304 87 95 46
-10.5209 -2.9586 3.7538 84 119 56
-17.5401 -21.4534 3.7693 94 101 49
-4.0423 -14.9893 4.3621 103 91 54
5.5320 -1.1883 4.3624 77 101 50
5.8885 -0.4784 4.3642 91 108 45
5.4671 -0.6817 4.3648 79 97 31
-11.5060 5.0599 4.3662 59 90 56
18.1056 -13.4204 4.3673 65 110 55
5.6127 -1.0337 4.3732 122 150 5
5.5224 -0.9437 4.3743 76 127 0
-5.0712 -24.7179 4.3803 88 98 41
19.2617 -10.9393 4.3815 95 94 62
5.7327 -1.3647 4.3843 61 100 48
-17.1897 -24.8048 0.8419 139 123 62
9.2997 2.5909 4.4028 66 99 50
-19.5038 -13.6016 1.0314 95 104 58
18.4532 -14.6040 4.4055 80 112 47
-11.5599 4.9727 4.1467 92 123 54
5.3115 -0.6394 4.4084 101 142 58
5.7600 -19.0963 4.1483 56 94 51
2.4295 0.0561 4.4189 127 96 47
12.1616 -22.5813 4.1600 68 94 56
6.0148 -1.0985 4.4274 69 103 45
13.2258 -20.9265 4.1643 135 93 61
18.2185 -13.3695 4.4286 40 94 48
-10.5660 -2.9093 4.1722 75 107 58
-8.7054 -10.6456 4.4316 85 109 62
4.7964 -15.0173 4.1743 48 93 62
18.4713 -14.3393 4.4378 57 93 39
5.4858 -1.1963 4.1862 91 126 48
18.6146 -14.6042 4.4392 60 92 52
-5.6068 -7.3001 4.1921 107 97 60
-2.2137 -8.1517 4.4482 71 90 60
-5.2798 -6.2554 4.1939 90 91 63
18.3262 -13.3059 4.4505 46 93 53
18.0581 -13.4345 4.4554 60 92 61
19.3195 -7.4924 4.2210 85 107 54
5.5263 -0.3532 4.4598 58 92 50
-4.0314 -15.0571 4.4653 95 90 49
22.3776 -18.7858 4.2260 63 96 53
5.4276 -0.9435 4.4669 80 103 57
5.8640 -0.8831 4.2344 67 93 33
19.2118 -7.4650 4.2382 85 101 62
5.9826 -0.5073 4.4783 103 122 21
-17.3206 -22.1767 4.2405 83 94 22
-10.6634 -2.8324 4.4784 78 98 56
10.8978 4.2524 4.2447 73 90 54
-2.9461 -11.8885 4.4824 71 94 56
12.4037 -18.3952 4.2476 44 93 48
-4.7562 -24.6579 4.4846 161 121 33
5.7231 -0.9080 4.2541 67 98 5
5.8943 -0.9022 4.4945 43 100 59
-5.9424 -6.7922 4.2619 97 91 63
-2.2733 -9.0297 4.4953 98 98 62
3.8246 -20.2188 4.2626 51 93 56
22.2996 -18.6820 4.2732 64 98 63
-9.0982 -6.1113 6.9708 92 94 7
22.2604 -18.7747 4.2765 67 97 50
-12.6665 9.6756 6.9720 77 100 55
17.6589 -10.5863 6.9891 110 109 62
-17.4094 -21.4932 4.2810 107 118 61
-13.3878 -22.2543 6.9940 87 96 57
-11.5171 4.9782 4.2982 55 96 37
20.3708 -12.6489 6.9989 83 103 42
11.1454 4.2609 4.3026 81 121 63
-13.1606 -22.5253 7.0198 87 94 55
6.3829 -1.2699 4.3118 75 123 46
-1.5198 0.2561 7.0292 93 119 42
5.4892 -1.3176 4.3272 69 92 51
21.5096 -12.8340 7.0296 72 93 63
12.3637 -18.1788 4.3316 67 101 33
0.1774 0.0279 7.0384 109 128 60
5.9614 -1.2227 4.3460 67 102 50
16.9583 -9.3984 7.0392 104 93 61
17.9591 -13.3702 4.3511 103 130 47
-10.3046 -22.2504 7.0443 100 100 54
5.4950 -1.0496 4.3515 109 143 37
19.5480 -13.3088 7.0551 82 96 58
-3.8637 -14.5958 4.3532 126 102 57
-12.6941 -22.5810 7.0595 124 132 44
5.7597 -1.2536 4.3609 89 133 62
-11.8800 -10.0807 7.0607 87 99 33
-9.6093 -6.1315 7.0655 95 94 59
-12.5295 9.7313 3.0328 74 95 59
20.6166 5.6436 3.0560 66 100 63
-18.4399 -24.2976 1.9695 105 93 52
-4.2123 4.1466 3.0637 134 96 54
-18.5381 -24.3755 2.0061 116 103 43
-18.1965 -20.0382 3.0687 89 90 43
-12.5933 4.6406 2.0749 91 111 63
-3.9628 -15.3012 3.0928 101 93 61
-11.4629 5.0370 2.1040 75 100 41
14.8906 5.4739 3.0957 84 100 56
-18.3374 -24.2089 2.1098 146 134 57
-11.5462 5.0099 3.0982 78 101 52
-7.5920 1.7230 2.1126 87 111 59
15.2052 5.3544 3.1033 80 91 59
-18.2833 -24.1097 2.1371 140 122 58
-11.4889 5.0638 3.1757 74 92 55
-18.5340 -24.2928 2.1652 121 112 52
14.4783 5.5491 3.1900 76 112 60
-3.6173 -15.7258 3.1926 100 93 62
15.3146 5.2107 3.2155 79 121 62
9.7999 2.5591 8.8181 104 99 59
-18.2466 -19.9384 3.2210 96 94 57
20.7967 -12.1698 8.8219 105 129 56
-18.0684 -22.0759 3.2307 118 102 61
-15.9073 -12.5419 8.8289 85 101 56
-11.5272 4.9768 3.2320 78 110 46
9.6584 -2.3276 8.8292 79 90 38
10.9913 5.3635 3.2338 118 105 63
9.0001 2.3211 8.8317 84 99 61
-19.4289 -13.8574 3.2397 85 103 62
15.6394 0.2250 8.8344 78 95 51
-10.4444 -3.0246 3.2419 58 94 43
17.2545 0.6522 8.8356 89 94 63
-3.9630 1.9153 3.2426 95 115 57
11.4560 -19.1657 8.8432 98 106 61
-4.0617 1.8743 3.2498 46 98 38
17.1425 0.6066 8.8443 109 116 63
-18.4945 -19.1269 3.2633 90 97 54
9.9947 1.8014 8.8536 98 90 58
-18.4177 -19.5630 3.2654 93 100 62
-3.6394 -25.4071 8.8646 87 98 31
14.8801 6.3779 3.2833 77 104 55
9.8910 2.4644 8.8725 82 90 52
-3.6092 -15.6330 3.2966 101 94 61
9.0862 2.4083 8.8731 69 95 53
-15.3477 -12.4378 8.8816 98 105 62
9.1536 2.3138 8.9030 113 97 52
19.7071 -10.3046 8.9095 85 103 23
13.1931 6.2911 8.9145 62 97 17
19.7217 -10.5385 8.9156 114 136 48
-1.1758 0.6611 6.6821 159 182 47
19.8227 -10.6996 8.9349 80 95 35
-12.0814 -8.9051 6.6834 123 157 14
22.1599 -2.9859 8.9354 63 91 46
-15.8396 7.2792 6.6924 81 90 63
19.9456 -10.6859 8.9450 79 91 13
-6.0128 -18.7571 6.6946 87 92 61
10.1537 2.9341 8.9509 88 90 49
-12.7241 9.7369 8.9564 68 91 60
-12.6846 9.6803 6.6956 72 94 60
19.7071 -10.4268 8.9576 72 93 29
21.0722 -12.5820 6.7347 68 94 44
19.3551 -10.0880 8.9687 103 137 51
21.0870 -11.7565 6.7390 61 94 11
19.7724 -10.6065 8.9797 71 91 26
21.0308 -12.4508 6.7611 83 107 55
16.4938 -13.7140 9.0151 104 121 62
-13.5365 -22.1455 6.7714 99 111 57
18.6150 -11.0133 9.0282 97 101 60
21.1250 -12.1263 6.7867 73 114 0
9.8213 3.0460 9.0303 77 93 30
3.1346 -10.7870 6.7891 90 92 48
9.7171 2.6167 9.0313 75 92 38
20.4183 -9.8661 9.0320 96 103 28
-11.5811 4.9743 6.7918 61 104 56
-12.6814 9.6830 6.8052 71 90 62
17.5272 -9.2150 6.8059 94 111 58
-1.5143 0.3554 6.8084 97 102 62
3.5715 -11.4535 6.8138 63 96 5
18.7410 -14.7835 11.3749 137 96 52
20.8171 -12.4956 6.8276 59 91 22
-14.3897 2.0338 11.3785 94 91 62
15.7825 -16.4831 6.8279 98 104 61
18.9358 -12.9358 6.8493 95 94 61
20.6683 -12.5717 6.8593 84 106 45
-4.7039 -14.4621 11.3949 98 93 62
20.8025 -11.6906 6.8606 79 90 57
15.9870 -12.3575 11.4290 63 96 43
20.9515 -12.4545 6.8624 74 101 53
-13.7766 6.3527 11.4364 95 93 60
-1.4069 0.5874 6.8741 71 96 1
15.6578 -12.7287 11.4409 106 106 55
-10.0629 -9.5993 6.8742 105 112 63
-1.3674 2.4340 11.4839 82 95 56
19.1757 -7.3926 11.5008 105 110 51
18.4756 -11.0239 9.0372 97 115 56
16.0695 -12.4028 11.5106 104 115 43
19.9002 -10.6580 9.0394 85 101 17
16.2324 -10.1230 11.5151 88 93 54
18.1056 -11.9686 9.0413 112 138 62
15.8898 -12.5199 11.5516 153 193 47
-12.7316 9.6823 9.0453 67 96 63
1.7111 -1.4927 11.5598 139 148 24
16.2476 -13.4381 9.0851 82 111 55
-5.3597 -21.2840 11.5826 100 98 42
-6.4873 -20.5351 9.0896 85 93 63
-4.0539 1.6585 11.6358 88 92 37
19.7908 -10.5530 9.0959 71 91 22
3.5439 -9.8460 11.6531 140 160 22
16.2299 -13.3285 9.1130 57 99 19
14.3433 -12.9063 11.6723 71 93 39
10.9224 5.4885 9.1233 97 99 60
20.0809 -14.3351 11.6912 120 120 47
-2.7766 -23.1675 9.1544 80 99 49
13.6534 -12.6122 11.7023 94 100 57
18.7733 -11.6130 9.1707 88 104 42
13.1673 -12.7908 11.7099 100 122 60
8.4420 5.1466 9.1824 82 97 35
13.0785 -12.9618 11.7153 76 98 54
0.6204 0.4464 9.1864 65 90 41
12.9406 -12.8773 11.7363 76 97 59
7.9912 4.4427 9.1925 78 111 18
-2.6662 1.4826 11.7442 128 142 57
19.7081 -10.5150 9.2001 106 114 62
11.7288 -18.4962 9.2006 73 92 60
12.9576 -12.4093 11.7476 88 105 58
15.2241 -13.0042 11.7483 94 93 59
20.0056 -14.6129 9.2063 120 91 59
-14.0325 -20.2326 11.7498 83 91 43
-3.8029 -25.3822 9.2149 92 91 33
12.9968 -12.9822 11.7701 93 115 62
17.6601 -9.5757 9.2192 94 92 62
14.1065 -12.5614 11.7860 78 98 53
8.1909 4.9826 9.2199 90 116 35
-14.0061 -20.3726 11.7951 86 92 47
9.2755 5.6636 9.2325 80 90 26
19.3601 -7.8499 11.7961 93 91 62
7.9558 4.9321 9.2343 118 158 30
14.6973 -13.3442 11.7962 80 95 52
9.2449 5.1998 9.2450 99 101 59
19.2201 -9.0372 11.8138 99 106 62
14.4721 -13.7176 9.2521 68 94 42
10.1894 4.1500 11.8428 104 112 52
-11.4583 -2.0814 9.2732 67 90 59
14.3275 -13.0021 11.8594 114 133 59
8.2291 4.5875 9.2734 103 103 43
-2.8008 -23.2135 9.2749 76 92 59
14.5995 -13.3029 11.8629 79 100 38
8.4028 4.6215 9.3064 85 101 59
13.9639 -13.2648 11.8643 76 113 52
-18.4445 -1.2031 11.8667 78 91 63
14.3897 -13.2157 11.8772 109 148 21
14.4999 -13.4093 11.8780 100 131 44
14.9007 -13.5424 11.8804 72 90 39
14.7679 -13.6500 11.8827 83 96 62
14.3920 -13.4628 11.8854 118 144 43
14.1131 -13.4363 11.8876 77 110 47
14.2432 -13.4506 11.8926 107 137 62
14.5654 -13.6084 11.9127 76 90 49
14.4178 -13.5571 11.9148 77 98 39
15.4753 -13.6421 11.9271 95 99 52
14.2101 -13.6001 11.9277 74 105 21
