21.5275 5.1416 3.6680 157 0 0
22.7409 4.2662 1.0280 116 0 0
22.5961 3.8542 3.6940 139 0 0
22.6512 4.4416 1.0290 119 0 0
15.3204 5.0582 3.7110 66 0 0
21.7810 4.2836 1.0300 96 0 0
21.5475 5.0198 3.7120 91 0 0
21.8791 4.1742 1.0310 128 0 0
15.5589 4.1296 3.7130 60 0 0
22.4895 4.7192 1.0320 111 0 0
15.2969 5.0967 3.7150 89 0 0
21.7924 4.4668 1.0330 126 0 0
15.2753 5.0459 3.7200 88 0 0
21.8160 4.5789 1.0340 104 0 0
15.2726 4.9596 3.7220 71 0 0
21.8135 4.5478 1.0350 96 0 0
28.1455 2.3883 3.7470 87 0 0
21.7993 4.4484 1.0360 119 0 0
28.3582 1.3314 3.7480 131 0 0
22.3910 4.6888 1.0370 141 0 0
15.5652 4.9128 3.7600 72 0 0
22.5950 4.1191 1.0380 109 0 0
15.3594 5.0845 3.7630 69 0 0
22.4420 4.0723 1.0390 124 0 0
15.5194 4.9551 3.7720 114 0 0
21.7941 4.5267 1.0400 85 0 0
27.4321 1.7742 3.7830 106 0 0
22.3290 4.6829 1.0410 84 0 0
15.4853 4.2442 3.7870 97 0 0
22.5057 4.7257 1.0420 109 0 0
22.5208 3.9382 3.7910 129 0 0
21.8629 4.6806 1.0430 85 0 0
15.4398 4.9638 3.7960 64 0 0
22.3268 4.8577 1.0440 97 0 0
29.0991 1.4127 3.8070 79 0 0
22.5780 4.0704 1.0450 75 0 0
15.5736 4.9702 3.8230 72 0 0
22.4131 4.6591 1.0460 111 0 0
15.4606 4.9552 3.8490 82 0 0
22.2931 4.9245 1.0470 103 0 0
15.5100 4.3253 3.8500 79 0 0
22.3273 4.7858 1.0480 85 0 0
29.5366 -1.3353 3.8570 65 0 0
21.7817 4.2756 1.0490 111 0 0
15.4752 4.2897 3.8580 99 0 0
22.7381 4.3083 1.0510 128 0 0
24.1423 2.9165 3.8610 65 0 0
22.5933 4.1008 1.0520 118 0 0
15.6721 4.2084 3.8640 119 0 0
22.6134 4.1382 1.0540 123 0 0
21.4760 5.1297 3.8670 121 0 0
21.9188 4.1630 1.0550 98 0 0
23.0110 3.4592 3.8780 117 0 0
21.9419 4.8270 1.0560 81 0 0
21.9879 4.1727 0.2190 77 0 0
21.8038 4.4368 1.0570 108 0 0
22.4206 4.1563 0.2200 100 0 0
22.1507 4.0097 1.0580 128 0 0
22.0839 4.0507 0.2210 135 0 0
21.8209 4.6240 1.0590 104 0 0
22.3346 4.1654 0.2220 136 0 0
22.1132 4.0836 1.0600 89 0 0
22.2773 4.1494 0.2230 99 0 0
22.6402 4.6566 1.0610 112 0 0
21.6874 4.4195 0.2240 123 0 0
21.9041 4.7489 1.0620 102 0 0
21.9900 4.1264 0.2260 101 0 0
21.8174 4.6081 1.0630 94 0 0
21.7849 4.3023 0.2270 114 0 0
22.7371 4.3235 1.0640 100 0 0
22.6648 4.6912 0.2310 71 0 0
21.7831 4.2545 1.0650 123 0 0
22.3497 4.1613 0.2330 116 0 0
22.3751 4.6922 1.0660 132 0 0
21.7176 4.5951 0.2360 123 0 0
22.2471 4.9532 1.0670 93 0 0
21.9227 4.2233 0.2370 139 0 0
22.1543 4.9268 1.0680 90 0 0
22.1386 4.0685 0.2390 94 0 0
21.7669 4.3312 0.9250 87 0 0
22.0747 4.0515 0.2400 107 0 0
21.8497 4.1950 0.9280 109 0 0
22.6874 4.6349 0.2420 90 0 0
22.2690 3.9844 0.9290 75 0 0
21.7929 4.2945 0.2440 121 0 0
21.7835 4.5486 0.9300 91 0 0
21.8126 4.2925 0.2450 84 0 0
22.0784 4.0982 0.9310 103 0 0
21.7625 4.3097 0.2460 124 0 0
22.1648 4.9085 0.9320 91 0 0
21.6896 4.5117 0.2470 103 0 0
22.0008 4.1561 0.2480 107 0 0
23.0019 0.7091 8.4300 91 0 0
21.9965 4.1016 0.2490 89 0 0
20.6798 1.2164 8.4310 75 0 0
22.0837 4.0579 0.2510 101 0 0
22.9617 0.8093 8.4370 114 0 0
22.0051 4.2142 0.2530 123 0 0
21.7152 -1.3432 8.4380 102 0 0
22.4518 4.1624 0.2540 91 0 0
22.2874 -2.2919 8.4420 84 0 0
22.0022 4.0848 0.2550 74 0 0
20.5408 1.1671 8.4430 104 0 0
21.9261 4.2220 0.2560 128 0 0
25.7405 7.4623 8.4460 63 0 0
22.0031 4.1442 0.2580 119 0 0
28.1619 8.6830 8.4500 107 0 0
21.7163 4.7166 0.2590 94 0 0
28.5774 3.6557 8.4570 61 0 0
22.6568 4.6868 0.2600 108 0 0
28.1850 8.7213 8.4600 89 0 0
22.1082 4.0630 0.2620 99 0 0
26.2706 8.2666 8.4670 78 0 0
22.6195 4.2613 0.2630 84 0 0
26.0851 8.5604 8.4680 79 0 0
21.8347 4.2873 0.2680 111 0 0
25.2926 8.5246 8.4760 77 0 0
21.7298 4.5744 0.2690 104 0 0
28.1436 4.1867 8.4930 132 0 0
21.6877 4.4295 0.2710 131 0 0
26.7365 8.8429 8.4940 88 0 0
21.7023 4.3811 0.2730 69 0 0
23.4316 4.4358 8.5060 120 0 0
21.7922 4.2903 0.2740 83 0 0
28.1864 4.2353 8.5110 76 0 0
21.9295 4.9799 0.2760 84 0 0
24.2260 7.5386 8.5120 60 0 0
21.9313 4.2147 0.2770 105 0 0
27.9708 5.4383 8.5140 80 0 0
21.8920 4.2408 0.2780 98 0 0
28.2476 8.7227 8.5150 105 0 0
21.7639 4.3009 0.2790 121 0 0
22.5716 1.7152 8.5160 73 0 0
21.7276 4.5863 0.2810 121 0 0
19.4240 -1.8242 8.5220 62 0 0
21.6838 4.4697 0.2820 122 0 0
20.3807 1.2291 8.5270 121 0 0
22.4863 4.9300 0.2830 74 0 0
21.5292 -0.7939 8.5300 93 0 0
21.6936 4.4178 0.2840 77 0 0
23.4857 -0.2739 8.5330 61 0 0
21.9732 4.2039 0.2880 102 0 0
21.4070 4.2827 8.5460 130 0 0
22.6467 4.6821 0.2890 84 0 0
21.6601 -1.6049 8.5520 84 0 0
21.6933 4.3870 0.2930 105 0 0
23.3276 -2.4387 8.5530 80 0 0
21.7930 4.2909 0.2940 116 0 0
21.5754 5.8071 8.5550 100 0 0
22.5516 4.7924 0.2960 61 0 0
20.1264 -0.7318 8.5560 87 0 0
22.7128 4.5781 0.2970 106 0 0
29.1985 5.2048 8.5570 111 0 0
22.2072 4.1378 0.2990 106 0 0
21.8623 5.4858 8.5610 74 0 0
22.2763 4.1474 0.3000 85 0 0
21.7130 4.6347 0.3040 120 0 0
26.7648 3.0291 7.3530 143 0 0
22.2982 4.1494 0.3050 82 0 0
28.7203 5.3029 7.3580 93 0 0
21.9094 4.2335 0.3060 133 0 0
23.5394 -2.8511 7.3620 108 0 0
22.0079 4.1097 0.3080 131 0 0
23.9202 0.4542 7.3660 149 0 0
21.6930 4.4064 0.3090 139 0 0
23.9456 3.4619 7.3670 134 0 0
22.0134 4.1625 0.3100 108 0 0
25.3526 -1.9914 7.3690 128 0 0
21.7011 4.5076 0.3120 81 0 0
28.7298 4.8994 7.3700 63 0 0
21.7293 4.3255 0.3150 133 0 0
23.4881 -3.7786 7.3760 65 0 0
21.7106 4.6796 0.3160 106 0 0
26.1881 6.8407 7.3810 78 0 0
21.7199 4.7167 0.3180 99 0 0
23.6067 -2.5893 7.3920 135 0 0
22.5274 4.8561 0.3220 75 0 0
29.2231 8.2327 7.3990 82 0 0
21.9538 4.2036 0.3230 110 0 0
26.7009 8.7737 7.4000 84 0 0
22.6432 4.7408 0.3240 101 0 0
23.3772 4.1488 4.6740 119 0 0
21.8578 4.2840 0.3250 103 0 0
22.3961 4.9519 0.3280 111 0 0
22.7719 4.0090 4.6790 73 0 0
22.2528 4.1443 0.3290 130 0 0
27.7912 8.1261 4.6950 98 0 0
22.5235 4.8044 0.3310 72 0 0
22.7221 3.9860 4.7020 62 0 0
21.7182 4.6151 0.3340 111 0 0
25.1661 -2.3375 4.7030 90 0 0
21.8322 4.2769 0.3360 119 0 0
27.5784 9.5368 4.7160 117 0 0
21.8824 4.2561 0.3370 109 0 0
22.6006 5.9277 4.7180 67 0 0
22.3261 4.1532 0.3380 80 0 0
21.7011 4.4990 0.3390 101 0 0
24.6984 4.2300 7.4060 62 0 0
22.7605 3.5590 4.7280 143 0 0
20.4003 -3.4057 7.4110 65 0 0
29.0774 3.8423 4.7470 130 0 0
24.2493 8.1990 7.4190 109 0 0
29.1044 5.5962 4.7480 81 0 0
28.7457 5.2461 7.4260 96 0 0
28.1173 8.0736 4.7500 65 0 0
23.6669 0.5043 7.4290 103 0 0
27.5598 0.1063 4.7660 67 0 0
24.2531 8.0584 7.4340 103 0 0
16.2259 4.3743 4.7690 98 0 0
27.9312 3.0695 7.4450 115 0 0
21.4327 5.3244 4.7860 73 0 0
19.7708 -2.2771 7.4510 85 0 0
28.8712 8.3686 4.8100 76 0 0
19.3316 -1.7646 7.4600 93 0 0
27.3159 8.6327 4.8370 102 0 0
23.9429 3.2751 7.4640 118 0 0
22.7258 3.5406 4.8490 136 0 0
23.6853 3.3295 7.4650 68 0 0
24.4918 2.6038 4.8530 68 0 0
22.7508 7.6511 7.4720 114 0 0
24.7860 2.9794 4.9220 98 0 0
25.1206 -1.1257 7.4730 91 0 0
24.9045 -1.2686 4.9250 120 0 0
26.6013 3.0128 7.4770 115 0 0
13.8641 4.0210 4.9320 107 0 0
22.5358 7.6314 7.4940 104 0 0
28.9519 7.3115 4.9330 75 0 0
24.0175 3.4711 7.5010 136 0 0
24.9088 -1.5728 4.9400 103 0 0
22.5676 6.3610 7.5200 64 0 0
30.7621 3.2216 4.9650 70 0 0
24.6186 8.1770 7.5250 109 0 0
28.6710 3.8491 4.9780 96 0 0
28.7449 9.1315 7.5340 61 0 0
27.4425 3.3315 4.9840 73 0 0
24.7381 -3.5775 7.5400 107 0 0
22.7526 6.2983 5.0020 103 0 0
22.6371 7.8034 7.5570 126 0 0
30.5807 3.2930 5.0050 105 0 0
21.4545 1.1735 7.5580 80 0 0
23.5489 4.2420 5.0120 95 0 0
25.2742 -1.4384 7.5590 91 0 0
23.4433 4.3706 5.0190 119 0 0
22.8070 7.7189 7.5610 114 0 0
29.4629 4.0938 5.0240 92 0 0
24.1979 0.1044 7.6080 91 0 0
21.9303 -3.8248 5.0270 99 0 0
27.4743 -0.9948 7.6260 103 0 0
23.5593 4.2983 5.0310 128 0 0
19.8056 -1.5706 7.6310 102 0 0
24.7712 -1.0383 5.0340 109 0 0
22.9061 7.9322 7.6360 67 0 0
28.0768 0.2045 5.0400 141 0 0
26.2065 7.4561 7.6400 60 0 0
13.9846 3.7290 5.0510 95 0 0
25.0045 -2.7552 7.6420 107 0 0
32.0541 3.7289 5.0570 71 0 0
19.6562 -1.5672 7.6500 142 0 0
28.9109 3.8838 5.0650 80 0 0
21.7345 5.9354 7.6550 82 0 0
22.6072 6.4123 5.0760 98 0 0
26.5547 3.0215 7.6590 93 0 0
14.1257 3.9781 5.0790 96 0 0
28.7837 5.9549 7.6600 95 0 0
29.4965 6.0568 5.0810 86 0 0
27.5368 8.7116 7.6660 65 0 0
22.0030 -3.8947 5.0850 62 0 0
28.7732 4.7893 7.6700 81 0 0
27.1218 0.2548 5.0870 109 0 0
22.8403 8.0253 7.6710 77 0 0
14.0609 4.3645 5.0900 63 0 0
28.4982 4.8044 7.6720 94 0 0
28.3020 9.6684 5.0940 93 0 0
28.6143 4.3955 7.6910 106 0 0
28.6436 9.4725 5.0980 74 0 0
22.8249 7.7352 7.7000 125 0 0
31.9044 2.3462 5.1020 63 0 0
24.8579 8.2334 7.7020 132 0 0
29.2656 3.1684 5.1220 119 0 0
25.1706 -1.6401 7.7110 81 0 0
26.1619 8.3183 5.1260 99 0 0
21.3114 1.0381 7.7270 91 0 0
14.1798 4.3921 5.1290 94 0 0
25.1382 -1.9825 7.7340 110 0 0
30.3365 3.5000 5.1340 147 0 0
25.0748 -2.0799 7.7380 105 0 0
26.5169 8.6217 5.1400 120 0 0
26.3866 -2.5332 7.7450 66 0 0
14.2363 4.4161 5.1510 86 0 0
25.0458 -2.0147 7.7520 133 0 0
29.7385 3.6151 5.1610 70 0 0
26.4344 3.1104 7.7620 112 0 0
28.3581 3.9991 5.1690 134 0 0
22.1699 1.9824 7.7640 94 0 0
26.1167 4.3576 5.1710 88 0 0
24.7684 -3.2305 7.7730 65 0 0
31.8907 5.0471 5.1720 87 0 0
28.6304 8.3369 7.7790 89 0 0
23.0283 3.4433 5.1760 106 0 0
24.9264 8.3271 7.7880 121 0 0
26.1458 8.2873 5.1860 69 0 0
27.1649 2.2478 6.9840 96 0 0
22.6810 4.3684 0.9340 130 0 0
23.6783 4.3223 5.1900 113 0 0
26.2524 6.1430 6.9850 60 0 0
22.6310 6.5001 5.1910 102 0 0
22.3533 -2.2466 6.9870 82 0 0
14.0975 4.1307 5.1960 81 0 0
23.2715 -3.6782 6.9900 113 0 0
22.7240 -2.8442 5.2050 72 0 0
25.3447 -2.1501 6.9980 93 0 0
28.6442 7.6586 5.2210 64 0 0
27.5060 8.6703 6.9990 74 0 0
29.7901 2.8852 5.2240 77 0 0
27.6728 -0.8252 7.0120 86 0 0
14.2237 3.9971 5.2280 108 0 0
20.0079 0.1639 7.0190 128 0 0
23.6763 4.2817 5.2450 88 0 0
23.3977 3.4385 7.0240 121 0 0
14.2682 4.0260 5.2470 115 0 0
23.1609 2.0163 7.0310 150 0 0
28.3340 6.5102 5.2490 74 0 0
19.9504 -0.2330 7.0400 117 0 0
27.1358 9.0956 5.2540 75 0 0
23.1706 2.1273 7.0450 151 0 0
31.6787 3.6486 5.2570 73 0 0
26.2440 -3.2742 7.0550 108 0 0
22.7739 4.5626 0.1060 114 0 0
25.2759 -2.0163 7.0600 91 0 0
22.7639 4.5751 0.1070 86 0 0
19.8855 -1.8398 7.0660 122 0 0
22.7035 4.7871 0.1080 69 0 0
19.9630 0.0906 7.0690 111 0 0
21.6596 4.5248 0.1090 71 0 0
18.5872 -1.1249 7.0770 66 0 0
21.6987 4.6601 0.1130 119 0 0
22.7158 4.6831 0.1140 75 0 0
23.7817 -2.2269 7.0850 93 0 0
22.0532 4.0351 0.1150 109 0 0
19.9926 -0.4211 7.0870 74 0 0
22.3155 4.1665 0.1160 94 0 0
23.7448 8.1818 7.0890 74 0 0
25.7676 -0.8560 7.0920 113 0 0
23.6878 -2.1426 7.1100 123 0 0
22.3900 4.1580 0.1170 105 0 0
21.3667 -3.7478 7.1160 62 0 0
22.2493 4.1614 0.1190 104 0 0
22.4641 7.4608 7.1190 124 0 0
21.8176 4.8506 0.1200 100 0 0
21.6539 -4.2220 7.1200 64 0 0
22.7598 4.5722 0.1220 65 0 0
23.1862 2.0844 7.1320 86 0 0
22.0144 4.0346 0.1270 92 0 0
24.8171 -0.1170 7.1330 103 0 0
21.9519 4.1889 0.1280 120 0 0
25.8035 -2.9401 7.1350 74 0 0
22.5607 4.2492 0.1300 99 0 0
24.2995 0.0524 7.1520 106 0 0
22.7669 4.5136 0.1310 72 0 0
23.7529 -2.7945 7.1560 103 0 0
21.7428 4.3411 0.1330 106 0 0
23.2647 -3.5005 7.1580 125 0 0
22.7608 4.5570 0.1350 66 0 0
21.3231 -3.6342 7.1720 68 0 0
24.2333 0.1722 7.1920 96 0 0
24.8417 -0.2281 7.2020 97 0 0
22.7144 4.6209 0.1380 112 0 0
21.6847 4.4580 0.1450 102 0 0
22.3318 4.9996 3.3180 109 0 0
22.6160 4.2576 0.1490 93 0 0
24.4159 5.6648 3.3330 164 0 0
22.3179 4.1682 0.1510 125 0 0
15.5796 4.0708 3.3370 93 0 0
21.8535 4.2381 0.1530 104 0 0
15.5889 4.1252 3.3470 123 0 0
21.9642 4.1265 0.1540 119 0 0
21.7771 4.3237 0.1550 116 0 0
21.9891 5.2387 -0.0220 76 0 0
22.1952 4.0057 0.7350 65 0 0
22.2638 5.1670 -0.0170 65 0 0
21.9239 4.2009 0.7360 68 0 0
22.1258 5.1491 -0.0120 77 0 0
21.7781 4.2547 0.7460 93 0 0
21.5716 4.4639 -0.0040 73 0 0
21.6174 4.3419 0.0040 68 0 0
22.1785 3.5666 0.0060 84 0 0
22.7658 4.6279 0.0080 85 0 0
21.7006 4.2795 0.0110 95 0 0
22.0245 3.8349 0.0150 80 0 0
23.0210 4.0846 0.0180 79 0 0
22.6658 4.6221 0.7510 74 0 0
22.3470 4.9295 0.7540 70 0 0
21.9608 4.1572 0.7580 104 0 0
21.9417 4.1792 0.7610 89 0 0
22.0012 3.8956 0.0210 73 0 0
21.7728 4.2778 0.7640 96 0 0
22.0707 3.9324 0.0240 65 0 0
21.7663 4.2940 0.7680 65 0 0
22.0323 3.9469 0.0260 66 0 0
22.4016 4.8505 0.7750 73 0 0
22.0964 4.1195 0.7760 116 0 0
21.6732 4.6494 0.0270 71 0 0
22.3215 4.9397 0.7780 89 0 0
22.0466 3.9301 0.0280 94 0 0
22.6822 4.3545 0.7800 86 0 0
21.9790 4.1419 0.7810 97 0 0
21.9145 4.0131 0.0290 78 0 0
22.6259 4.6405 0.7820 68 0 0
21.6439 4.5002 0.0310 148 0 0
21.8198 4.7261 0.7830 82 0 0
22.4056 4.0147 0.0320 64 0 0
22.5433 4.7192 0.7840 63 0 0
22.3635 4.0413 0.0330 76 0 0
21.7630 4.3836 0.7870 112 0 0
21.8130 4.1654 0.0340 69 0 0
21.9118 4.8351 0.7880 96 0 0
22.0632 3.9846 0.0350 80 0 0
22.4270 4.7019 0.7920 83 0 0
22.0354 4.0066 0.0360 119 0 0
22.0990 4.0969 0.7940 116 0 0
21.9066 4.0381 0.0380 83 0 0
21.7396 4.5935 0.4470 116 0 0
21.8555 4.1452 0.0390 79 0 0
21.7493 4.3163 0.4500 91 0 0
21.8231 4.2448 0.0400 133 0 0
21.9949 4.1801 0.4550 127 0 0
21.7625 4.3428 0.0410 119 0 0
21.8288 4.2574 0.4570 63 0 0
21.6487 4.4865 0.0420 73 0 0
21.7118 4.4404 0.4660 118 0 0
21.6656 4.3967 0.0440 128 0 0
21.8586 4.2552 0.4670 96 0 0
22.1412 4.0214 0.0460 73 0 0
21.7342 4.6203 0.4710 62 0 0
22.6842 4.8127 0.0470 75 0 0
21.8158 4.7526 0.4740 90 0 0
21.7014 4.3755 0.0480 133 0 0
21.7673 4.5249 0.4770 107 0 0
21.8999 4.1326 0.0500 71 0 0
22.1168 4.0543 0.4790 101 0 0
21.8199 4.2719 0.0510 114 0 0
22.4192 4.1357 0.4810 81 0 0
21.9223 4.1251 0.0520 106 0 0
21.7211 4.3944 0.4830 138 0 0
22.2828 4.1642 0.0530 95 0 0
21.7787 4.2747 0.4850 127 0 0
22.1194 4.0280 0.0550 102 0 0
21.7399 4.4701 0.4880 100 0 0
21.9313 5.0362 0.0560 79 0 0
21.7322 4.6421 0.4910 86 0 0
22.0435 4.0124 0.0580 133 0 0
21.8150 4.7520 0.4930 111 0 0
22.7752 4.5782 0.0590 66 0 0
21.7272 4.4464 0.4950 102 0 0
21.9290 4.1555 0.0600 83 0 0
21.7503 4.3097 0.4970 116 0 0
22.6354 4.8124 0.0620 68 0 0
21.7206 4.3916 0.4980 112 0 0
22.7452 4.7541 0.0630 119 0 0
21.7621 4.4906 0.4990 112 0 0
22.4414 4.1771 0.0650 117 0 0
22.0690 4.1896 0.5060 108 0 0
22.3347 4.1826 0.0670 140 0 0
21.8882 4.2479 0.5070 94 0 0
21.8609 4.2017 0.0700 125 0 0
21.9470 4.1976 0.5080 102 0 0
21.9437 4.1537 0.0710 88 0 0
22.0816 4.0711 0.5110 69 0 0
22.6979 4.8003 0.0730 71 0 0
22.1936 4.0547 0.5160 77 0 0
22.2909 4.1700 0.0750 139 0 0
22.1179 4.0527 0.5180 118 0 0
22.7845 4.5529 0.0760 75 0 0
21.7267 4.4436 0.5220 68 0 0
21.6813 4.3883 0.0770 110 0 0
22.0561 4.1939 0.5290 114 0 0
22.7459 4.6040 0.0790 90 0 0
21.7500 4.2997 0.5310 89 0 0
22.7224 4.6719 0.0840 104 0 0
22.3843 4.1331 0.5340 89 0 0
21.8625 4.2028 0.0850 147 0 0
21.7172 4.4173 0.5350 89 0 0
21.9518 4.0382 0.0870 104 0 0
22.1169 4.0507 0.5370 106 0 0
21.7959 4.3284 0.0890 102 0 0
22.0839 4.0801 0.5380 124 0 0
22.7820 4.5512 0.0910 64 0 0
22.4067 4.1257 0.5400 118 0 0
22.0458 4.0299 0.0920 125 0 0
22.0718 4.1769 0.5410 118 0 0
21.9351 5.0413 0.0930 85 0 0
21.9877 4.1591 0.5440 116 0 0
21.6950 4.7468 0.0940 94 0 0
21.9725 4.1667 0.5450 122 0 0
21.9561 4.1796 0.0980 100 0 0
21.7785 4.5488 0.5470 84 0 0
21.6662 4.4253 0.1000 114 0 0
22.0845 4.0671 0.5490 113 0 0
21.9513 4.1101 0.1010 81 0 0
21.8407 4.2389 0.5510 95 0 0
21.6624 4.4411 0.1020 108 0 0
21.8255 4.2379 0.5530 141 0 0
21.7621 4.5322 0.8010 96 0 0
21.7554 4.2973 0.5550 114 0 0
21.7833 4.2595 0.8050 76 0 0
22.0975 4.0591 0.5580 138 0 0
22.6790 4.3694 0.8100 115 0 0
22.5898 4.6603 0.5590 63 0 0
22.3879 4.8041 0.8110 77 0 0
22.5873 4.7662 0.5600 60 0 0
22.0690 4.1271 0.8170 75 0 0
21.7214 4.4130 0.5610 106 0 0
22.5314 4.7292 0.8180 66 0 0
21.7489 4.4556 0.5620 82 0 0
21.7658 4.5496 0.8200 100 0 0
21.8364 4.2346 0.5700 71 0 0
21.8851 4.7966 0.8210 70 0 0
21.7500 4.2997 0.5710 104 0 0
22.6415 4.6392 0.8260 98 0 0
21.7642 4.2779 0.5740 123 0 0
21.7667 4.3715 0.8270 86 0 0
21.9244 4.2037 0.5760 107 0 0
22.0697 4.9148 0.8290 93 0 0
22.0596 4.1058 0.5800 108 0 0
22.4253 4.6922 0.8310 79 0 0
21.7648 4.5526 0.5820 112 0 0
21.8827 4.1951 0.8380 100 0 0
21.7370 4.3285 0.5830 131 0 0
22.4809 4.7278 0.8420 71 0 0
21.9884 4.1754 0.5840 82 0 0
22.6682 4.6152 0.8460 76 0 0
21.9581 4.1785 0.5850 128 0 0
22.2173 4.9346 0.8470 112 0 0
22.0714 4.1619 0.5870 123 0 0
21.9652 4.8496 0.8510 112 0 0
21.7703 4.6679 0.5950 73 0 0
21.9242 4.8365 0.8520 71 0 0
22.3258 4.1224 0.5990 98 0 0
21.8049 4.4560 0.8540 93 0 0
22.0963 4.0607 0.6020 92 0 0
22.3510 4.8944 0.8560 83 0 0
21.7410 4.3264 0.6030 74 0 0
21.7754 4.3886 0.8570 116 0 0
21.7414 4.5789 0.6050 93 0 0
22.6805 4.5823 0.8580 106 0 0
21.7737 4.2748 0.6070 96 0 0
22.6273 4.6488 0.8590 87 0 0
22.0681 4.1007 0.6090 121 0 0
21.9441 4.1723 0.8610 83 0 0
22.5527 4.7406 1.2170 125 0 0
21.7936 4.6366 0.8640 61 0 0
22.1428 4.9604 1.2200 104 0 0
22.6462 4.6377 0.8650 107 0 0
22.2747 4.7719 1.2240 134 0 0
21.8599 4.1961 0.8660 93 0 0
22.6076 4.6594 1.2250 95 0 0
21.7885 4.3942 0.8670 113 0 0
21.8292 4.5846 1.2260 108 0 0
21.7703 4.3802 0.8680 119 0 0
22.0045 4.8529 1.2270 96 0 0
21.9741 4.8595 0.8690 111 0 0
22.2523 4.7377 1.2290 106 0 0
21.8167 4.2244 0.8710 72 0 0
21.9065 4.7628 1.2300 75 0 0
22.3425 4.7366 0.8750 61 0 0
22.2914 4.8645 1.2310 105 0 0
22.5653 4.1716 0.8760 109 0 0
21.8265 4.5692 1.2330 115 0 0
21.7656 4.3609 0.8780 127 0 0
22.2831 4.6664 1.2340 91 0 0
22.3657 4.8043 0.8800 85 0 0
22.1938 3.9227 1.2350 129 0 0
22.4941 4.7248 0.8810 80 0 0
21.8276 4.1586 1.2370 60 0 0
22.1974 4.9316 0.8860 104 0 0
22.4935 4.7465 1.2380 99 0 0
22.3287 4.7024 0.8870 86 0 0
22.3001 4.7776 1.2390 126 0 0
21.8792 4.1914 0.8880 136 0 0
22.5344 4.7509 1.2400 95 0 0
22.3064 4.0303 0.8900 63 0 0
21.8993 4.7418 1.2410 102 0 0
21.7843 4.4158 0.8910 126 0 0
22.7015 4.5543 1.2450 125 0 0
21.7747 4.5057 0.8930 124 0 0
22.6020 4.0139 1.2480 97 0 0
22.5489 4.7061 0.8940 72 0 0
22.2466 4.9590 1.2500 107 0 0
22.3911 4.7060 0.8950 104 0 0
21.8026 4.4507 1.2510 130 0 0
22.5617 4.6759 0.8960 140 0 0
22.6525 4.4572 1.2530 144 0 0
22.1609 4.9070 0.8980 103 0 0
22.6378 4.0135 1.2560 90 0 0
22.5505 4.6900 0.8990 116 0 0
22.2851 4.8993 1.2580 105 0 0
22.6120 4.5058 0.9000 66 0 0
22.7014 4.1159 1.2590 147 0 0
22.6566 4.5311 0.9010 80 0 0
22.2154 4.6652 1.2640 145 0 0
21.8131 4.6871 0.9020 89 0 0
21.7822 4.3408 1.2650 112 0 0
22.2020 3.9701 0.9050 94 0 0
22.1806 4.9883 1.2660 93 0 0
22.7145 4.3088 0.9060 99 0 0
22.2843 3.8935 1.2680 100 0 0
21.7739 4.2884 0.9080 95 0 0
22.2790 4.9097 1.2700 95 0 0
22.3581 4.7855 0.9090 123 0 0
22.7013 4.3950 1.2710 119 0 0
22.2854 4.9301 0.9100 105 0 0
22.1127 4.0184 1.2720 95 0 0
22.6282 4.4621 0.9110 139 0 0
22.2581 4.7504 1.2740 133 0 0
22.6091 4.4719 0.9120 118 0 0
22.1977 4.9832 1.2760 95 0 0
22.3184 4.9093 0.9130 120 0 0
22.6874 4.4182 1.2770 111 0 0
22.2020 4.9251 0.9140 86 0 0
22.8098 4.2709 1.2790 103 0 0
21.8201 4.2231 0.9150 135 0 0
22.1564 4.9810 1.2800 96 0 0
22.7077 4.3322 0.9160 130 0 0
22.1479 4.0310 1.2810 85 0 0
22.3376 4.8874 0.9170 116 0 0
22.0312 4.0160 1.2820 113 0 0
22.6926 4.3570 0.9200 118 0 0
22.2603 4.6467 1.2830 121 0 0
22.6309 4.4028 0.9230 118 0 0
21.8111 4.1543 1.2890 119 0 0
19.9159 7.4753 11.4940 85 0 0
22.2373 4.7296 1.2900 124 0 0
23.9139 7.5593 11.4950 117 0 0
22.7111 4.5770 1.2910 143 0 0
19.1796 8.7881 11.5160 81 0 0
22.7037 4.5546 1.2920 118 0 0
29.0089 6.4507 11.5220 77 0 0
21.7658 4.2582 1.2960 134 0 0
25.3152 -0.1202 11.5360 70 0 0
21.7639 4.3095 1.2970 137 0 0
18.7369 0.6998 11.5450 102 0 0
22.6835 4.6456 1.3030 102 0 0
23.1425 -0.9129 11.5610 61 0 0
22.1962 4.9870 1.3040 113 0 0
22.0146 8.9100 11.5680 97 0 0
17.1381 7.0608 11.5690 78 0 0
22.3821 4.6874 1.1970 142 0 0
18.7379 3.7992 11.5700 140 0 0
22.1881 4.9691 1.1990 121 0 0
25.7264 6.2759 11.5970 133 0 0
21.8948 4.6701 1.2010 108 0 0
23.8045 5.2563 11.5980 114 0 0
21.7897 4.3596 1.2030 102 0 0
18.6730 8.1621 11.6000 131 0 0
21.7714 4.2781 1.2040 96 0 0
28.0983 0.7964 11.6170 82 0 0
21.8076 4.4383 1.2050 117 0 0
16.1391 8.1769 11.6450 103 0 0
22.7229 4.3576 1.2060 148 0 0
16.9739 7.1529 11.6640 100 0 0
22.4000 4.6743 1.2070 123 0 0
20.5761 3.1607 11.6700 64 0 0
22.0285 4.0459 1.2080 142 0 0
27.9130 7.9954 11.6880 91 0 0
21.9808 4.0856 1.2090 117 0 0
20.0041 2.2095 11.6900 89 0 0
22.0047 4.8543 1.2100 87 0 0
17.9469 7.9541 11.6930 127 0 0
22.6714 4.5171 1.2120 107 0 0
20.8689 6.5594 11.7040 135 0 0
21.9635 4.8190 1.2130 105 0 0
17.9243 7.9185 11.7090 113 0 0
22.3230 3.9270 1.2140 131 0 0
20.0662 7.0979 11.7290 60 0 0
22.7864 4.2849 1.2150 100 0 0
20.9185 8.6610 11.7300 79 0 0
22.7023 4.3676 1.2160 135 0 0
25.5671 9.7946 11.7430 71 0 0
29.5630 5.3803 11.7480 60 0 0
20.3298 1.1087 8.5630 135 0 0
25.9331 2.0400 11.7520 106 0 0
21.3449 6.3777 11.7530 101 0 0
14.4609 9.3899 11.7560 83 0 0
26.4144 4.7368 11.7730 63 0 0
29.4849 5.3643 11.7780 102 0 0
24.6413 6.1742 11.7790 104 0 0
14.3171 3.5598 11.7830 81 0 0
23.9768 5.0523 11.7930 95 0 0
14.3773 3.6306 11.7970 89 0 0
20.8406 6.6532 11.8000 86 0 0
27.2068 4.1592 11.8010 119 0 0
21.8111 3.4748 11.8200 68 0 0
22.2494 1.6896 11.8250 104 0 0
24.7204 9.5063 11.8260 77 0 0
22.1618 10.3154 11.8380 63 0 0
21.9078 1.3308 11.8410 76 0 0
16.4837 0.0106 11.8480 68 0 0
15.5326 5.4235 11.8530 67 0 0
20.9307 6.8099 11.8570 90 0 0
29.3320 5.5929 11.8710 110 0 0
17.7619 8.0462 11.8740 101 0 0
21.7309 1.3368 11.8870 89 0 0
22.2511 -2.5196 11.9100 104 0 0
18.2267 -1.1726 11.9120 67 0 0
21.4158 5.8094 11.9220 144 0 0
22.8594 8.6448 11.9240 112 0 0
25.3249 9.1461 11.9250 70 0 0
20.8101 6.9720 11.9270 103 0 0
19.9276 8.2525 11.9320 146 0 0
25.5537 6.7734 11.9340 90 0 0
15.9510 7.5923 11.9360 91 0 0
21.4615 5.8418 11.9450 70 0 0
22.3364 1.0569 8.5660 88 0 0
25.3026 6.5691 11.9580 87 0 0
23.4399 0.0231 8.5780 121 0 0
25.8385 2.4617 11.9620 126 0 0
25.3244 8.5887 8.5790 64 0 0
17.4207 6.3764 11.9760 73 0 0
21.9382 -3.1079 8.5830 91 0 0
21.6661 5.8381 11.9940 119 0 0
29.5518 6.1363 8.5900 61 0 0
19.0686 8.7060 12.0060 63 0 0
26.0001 9.1504 8.6000 77 0 0
23.8413 6.2372 12.0070 60 0 0
23.4980 4.4925 8.6120 115 0 0
28.1035 5.3631 12.0090 97 0 0
25.3909 8.6870 8.6280 87 0 0
16.7908 6.3600 12.0100 132 0 0
21.5548 -0.5909 8.6310 67 0 0
21.3184 1.3540 12.0250 73 0 0
22.9007 0.2250 8.6410 119 0 0
14.9291 9.7011 12.0310 95 0 0
20.2332 6.0295 8.6540 85 0 0
25.6319 6.7650 12.0350 118 0 0
26.9301 9.1009 8.6610 74 0 0
29.4760 5.8085 12.0360 61 0 0
27.7907 8.6191 8.6810 96 0 0
26.7669 3.4334 12.0370 131 0 0
29.8092 5.7060 8.6880 77 0 0
28.0697 3.1820 12.0380 72 0 0
24.3741 3.7254 8.6910 120 0 0
16.4919 8.0086 12.0510 114 0 0
21.4934 7.0151 8.7050 80 0 0
19.1375 5.5960 12.0610 86 0 0
25.7446 -1.4734 8.7190 106 0 0
24.0945 4.0813 12.0630 79 0 0
27.5844 9.0672 8.7320 70 0 0
17.0334 7.3529 12.0680 77 0 0
25.4298 8.8798 8.7440 110 0 0
24.0366 9.2107 12.0750 88 0 0
22.6952 7.6987 8.7680 87 0 0
24.1898 6.6192 12.0910 123 0 0
18.9548 -1.1358 8.7700 77 0 0
17.1441 6.2325 12.0920 139 0 0
29.2997 5.7721 8.7780 93 0 0
24.8517 6.2714 12.1020 103 0 0
24.4254 3.5609 8.7790 86 0 0
17.0213 7.3284 12.1140 80 0 0
23.3367 -1.2104 8.7870 78 0 0
28.0555 4.2126 8.7910 69 0 0
24.7159 -0.2129 12.1150 81 0 0
19.0678 -0.8711 8.8010 60 0 0
17.0858 6.2648 12.1190 74 0 0
28.6731 5.7336 8.8090 101 0 0
22.9531 -1.4091 12.1270 84 0 0
20.2201 5.6995 8.8140 147 0 0
19.4292 4.5348 12.1310 77 0 0
26.9981 4.8430 8.8250 115 0 0
24.9159 6.2898 12.1380 130 0 0
17.7888 6.7185 12.1400 95 0 0
17.8173 4.9830 12.1480 87 0 0
24.7559 -0.7099 8.8270 100 0 0
27.2997 2.8854 12.1530 112 0 0
25.4888 8.9435 8.8400 70 0 0
25.2704 5.9023 12.1550 73 0 0
26.8519 8.8840 8.8430 75 0 0
24.7760 -0.2391 12.1590 89 0 0
21.7875 -1.6864 8.8550 64 0 0
20.7312 7.1599 12.1680 94 0 0
19.0241 -1.4835 8.8660 116 0 0
22.5353 0.0576 12.1720 79 0 0
25.9984 7.0972 8.8680 62 0 0
24.2845 2.5003 12.1730 83 0 0
25.9838 3.5732 8.8690 87 0 0
24.2526 5.0328 12.1750 85 0 0
27.9640 8.5506 8.8760 68 0 0
21.7480 6.5975 12.1860 64 0 0
29.4686 1.9259 8.9050 95 0 0
25.9097 0.1075 12.1880 66 0 0
26.3627 6.8588 8.9110 80 0 0
24.3513 3.7056 12.1930 143 0 0
19.2580 -0.7209 8.9190 93 0 0
25.7522 6.7177 12.2070 105 0 0
25.6749 8.7824 8.9200 112 0 0
16.4502 5.9322 12.2100 125 0 0
24.5554 7.8851 8.9280 68 0 0
21.4633 2.2044 12.2230 73 0 0
24.6769 3.6173 8.9350 69 0 0
22.4596 4.8915 12.2330 127 0 0
20.0259 0.9185 8.9430 120 0 0
28.2022 5.4193 12.2410 67 0 0
28.5986 8.7355 8.9490 71 0 0
22.2871 5.2276 12.2500 84 0 0
28.4891 4.6890 8.9530 86 0 0
26.8147 3.5235 12.2560 100 0 0
30.1207 8.2999 8.9570 131 0 0
24.5695 4.6066 12.2620 132 0 0
28.5765 2.3328 8.9590 90 0 0
21.8962 6.1415 12.2630 70 0 0
26.9833 4.5069 8.9770 85 0 0
19.5383 9.3254 12.2720 84 0 0
24.5391 3.7587 8.9810 80 0 0
24.6104 4.5522 12.2950 122 0 0
24.2908 3.5209 8.9920 102 0 0
18.8010 6.5924 12.3050 102 0 0
26.8404 4.5358 8.9960 103 0 0
21.9934 6.0767 12.3110 105 0 0
28.4924 5.0709 9.0140 95 0 0
18.4418 8.2449 12.3210 91 0 0
28.6317 2.0327 9.0150 131 0 0
20.0792 10.5755 12.3230 101 0 0
30.1322 7.8122 9.0500 68 0 0
20.3072 2.0281 12.3300 88 0 0
24.4098 7.9059 9.0510 75 0 0
22.8827 -0.7341 12.3410 63 0 0
28.5427 8.5859 9.0750 85 0 0
25.5181 6.5327 12.3510 82 0 0
25.2420 10.1441 9.0770 74 0 0
18.0947 -0.3513 12.3530 97 0 0
19.8808 5.9789 9.0780 144 0 0
25.2276 0.2881 12.3650 114 0 0
20.0433 1.1243 9.1100 95 0 0
23.5511 7.5564 12.3740 63 0 0
22.5530 8.7528 9.1190 80 0 0
19.8827 11.0807 12.3810 62 0 0
27.3263 9.6770 9.1220 88 0 0
20.2940 10.6440 12.3870 92 0 0
24.0750 7.7160 9.1240 105 0 0
16.6530 4.0626 12.3910 73 0 0
24.1032 6.7037 9.1280 111 0 0
20.4895 3.4081 12.3940 112 0 0
20.0012 5.8864 9.1340 87 0 0
25.9049 0.8840 12.3970 63 0 0
20.6701 6.0296 9.1500 61 0 0
16.7952 7.1528 12.4070 122 0 0
27.1032 9.5855 9.1540 62 0 0
22.6402 4.6150 12.4240 92 0 0
24.9695 2.6034 9.1590 77 0 0
19.7795 10.7519 12.4250 76 0 0
20.6839 6.0344 9.1640 84 0 0
22.0741 6.0370 12.4270 120 0 0
27.9796 5.6807 9.1740 86 0 0
17.7746 9.0334 12.4310 79 0 0
20.1954 5.5768 9.1800 73 0 0
23.4006 8.1958 12.4370 74 0 0
28.0042 5.6528 9.1810 106 0 0
29.5372 4.5589 12.4460 75 0 0
27.4074 9.7441 9.1850 73 0 0
21.6210 3.6331 12.4530 109 0 0
21.4561 0.6408 9.2080 129 0 0
20.0138 10.2539 12.4640 80 0 0
19.7571 6.0275 9.2130 130 0 0
25.1767 6.1545 12.4800 63 0 0
20.7700 5.9887 9.2200 77 0 0
25.2107 6.1515 12.4960 110 0 0
28.4856 9.0255 9.2330 60 0 0
27.3758 6.4957 12.5140 63 0 0
22.1811 7.8216 9.2340 76 0 0
23.1795 9.1745 12.5230 101 0 0
21.9774 0.6307 9.2410 134 0 0
19.7391 10.9218 12.5350 94 0 0
21.9644 0.6423 9.2460 93 0 0
20.1485 10.6992 12.5360 72 0 0
28.0230 6.2501 9.2470 83 0 0
20.9678 -0.7166 12.5400 70 0 0
23.6176 5.0581 9.2630 103 0 0
19.1406 2.3451 12.5510 130 0 0
25.4930 -2.9060 9.2690 64 0 0
28.0780 6.3820 9.2760 84 0 0
20.6100 6.0887 9.2890 71 0 0
27.0279 4.1075 12.5530 136 0 0
22.5062 8.8520 9.2910 95 0 0
22.1081 2.4529 12.5640 66 0 0
19.6463 6.2173 9.3060 139 0 0
25.2398 6.1085 12.5680 116 0 0
29.0790 8.5007 9.3190 119 0 0
25.0502 0.2497 12.5690 76 0 0
28.2825 2.3590 9.3270 105 0 0
26.9336 1.7710 12.5750 77 0 0
23.8408 6.5552 9.3350 64 0 0
25.0529 6.1478 12.5760 83 0 0
27.8230 6.0011 9.3370 89 0 0
19.5206 2.1520 12.5780 112 0 0
24.3107 3.3108 9.3440 94 0 0
21.7192 6.7682 12.5860 141 0 0
22.5410 5.8526 12.5960 91 0 0
18.4238 0.1065 12.5980 107 0 0
22.5550 5.9334 12.5990 133 0 0
26.1418 7.2096 12.6000 71 0 0
22.4013 -2.6351 9.3450 63 0 0
25.9712 7.1895 12.6120 71 0 0
21.5791 8.0343 12.6150 79 0 0
21.8008 3.7944 12.6190 128 0 0
20.7159 6.1538 9.3550 126 0 0
22.9607 2.6291 12.6250 76 0 0
29.1322 8.4636 9.3640 90 0 0
22.7384 3.4516 12.6270 89 0 0
20.8187 5.9840 9.3660 105 0 0
19.5032 2.2426 12.6350 103 0 0
24.6981 2.5145 9.3680 95 0 0
25.4904 6.1680 12.6420 109 0 0
22.0812 6.3407 12.6430 61 0 0
23.7389 9.4607 12.6560 77 0 0
24.5979 8.3155 12.6590 65 0 0
22.8442 4.6000 12.6600 100 0 0
16.8469 4.1677 12.6740 68 0 0
19.6621 10.7119 12.6850 62 0 0
20.7451 7.1991 12.6960 87 0 0
27.3495 4.4130 12.7010 73 0 0
19.4786 10.6423 12.7020 76 0 0
24.1705 5.1438 12.7120 107 0 0
23.1508 3.1503 12.7130 83 0 0
22.9522 -0.3593 9.9130 102 0 0
27.7398 5.8346 9.3780 87 0 0
23.9599 5.1334 9.9250 71 0 0
21.3726 -0.9413 9.9320 144 0 0
24.6688 -1.9039 9.9340 80 0 0
24.8804 -0.8791 9.9430 63 0 0
26.1903 9.7721 9.9500 93 0 0
29.6603 8.5514 9.9610 79 0 0
21.5051 -0.7632 9.9620 89 0 0
20.0793 5.0062 9.9670 101 0 0
22.0800 -1.8544 9.9680 80 0 0
24.0341 -0.3223 9.9770 111 0 0
26.6093 2.4259 9.9790 128 0 0
28.7529 1.6983 9.9800 112 0 0
19.6877 1.8133 9.9810 127 0 0
23.0488 7.2396 9.9910 69 0 0
23.4424 5.2992 9.9930 83 0 0
20.0648 5.8016 9.9950 119 0 0
21.4377 7.3713 10.0000 103 0 0
21.1890 0.4435 10.0080 91 0 0
28.4277 5.5663 10.0100 103 0 0
28.1583 3.3963 10.0130 100 0 0
29.1497 5.9013 10.0290 70 0 0
26.1889 9.5262 10.0300 88 0 0
20.0885 5.8477 10.0320 102 0 0
21.7113 7.5473 10.0340 117 0 0
24.6605 -1.9147 10.0440 126 0 0
29.6183 7.7945 10.0490 76 0 0
20.1855 5.8109 10.0520 139 0 0
25.8346 9.5477 10.0590 76 0 0
28.0471 3.1880 10.0610 92 0 0
21.7430 7.4400 10.0620 121 0 0
21.6633 7.5563 10.0630 119 0 0
18.8124 -1.2253 10.0640 61 0 0
24.6496 -2.3827 10.0660 67 0 0
19.2867 1.8472 10.0680 93 0 0
20.0062 5.7822 10.0720 90 0 0
20.0055 5.7156 10.0770 72 0 0
20.1453 5.6442 9.3890 60 0 0
28.1245 3.3125 10.0820 118 0 0
27.7892 5.8548 9.4010 120 0 0
23.4189 5.3671 10.0880 108 0 0
24.8433 2.3453 9.4070 99 0 0
25.3770 1.0645 10.0890 111 0 0
29.3881 1.5287 9.4120 75 0 0
19.0430 1.6114 10.0900 75 0 0
27.7206 5.8186 9.4140 68 0 0
28.6702 5.5124 10.0980 92 0 0
20.3881 -1.8460 9.4150 83 0 0
29.3754 9.7434 10.1050 81 0 0
20.9816 6.1676 9.4220 70 0 0
21.6220 7.5663 10.1060 117 0 0
25.3734 2.5446 9.4320 85 0 0
26.7385 1.6173 10.1140 136 0 0
29.3033 2.4617 9.4330 85 0 0
27.0913 7.6819 10.1170 66 0 0
19.4449 6.2857 9.4350 128 0 0
25.9756 -0.4434 10.1200 71 0 0
23.0475 7.1652 9.4360 64 0 0
20.2000 5.7575 10.1250 95 0 0
26.1837 4.2800 9.4370 107 0 0
27.8707 2.9263 10.1320 101 0 0
20.9286 6.0849 9.4380 74 0 0
21.8608 7.6909 10.1350 143 0 0
19.4479 6.4236 9.4460 100 0 0
21.7623 7.7107 10.1360 108 0 0
27.6725 5.7185 9.4560 93 0 0
25.1351 1.5682 10.1380 124 0 0
19.7629 6.2740 9.4670 88 0 0
27.3762 3.1965 10.1410 103 0 0
26.4072 8.3263 9.4780 75 0 0
25.0522 1.6578 10.1440 89 0 0
21.0418 6.4342 9.4800 96 0 0
28.8616 4.2102 10.1490 76 0 0
21.0689 6.4998 9.4970 78 0 0
21.1864 0.5703 10.1560 86 0 0
22.2181 1.4410 9.4990 81 0 0
27.9381 0.3073 10.1620 60 0 0
21.0797 6.4291 9.5010 147 0 0
25.6438 -0.2370 10.1630 77 0 0
28.8003 6.4600 9.5080 85 0 0
22.1411 -0.1487 10.1650 84 0 0
28.8948 6.5378 9.5090 65 0 0
21.4472 -0.9412 10.1730 112 0 0
19.6080 6.4327 9.5180 124 0 0
25.1870 1.3699 10.1740 60 0 0
20.9429 6.5724 9.5210 135 0 0
24.4539 9.0255 10.1770 60 0 0
21.4332 0.5328 9.5230 76 0 0
28.3644 2.0887 10.1820 92 0 0
29.4227 9.0091 9.5240 71 0 0
21.0374 3.9947 10.1860 106 0 0
20.7622 4.9720 9.5350 72 0 0
29.4013 3.3941 10.1900 71 0 0
25.7457 2.3729 9.5450 79 0 0
25.6501 1.0297 10.1990 91 0 0
25.9009 9.5994 10.2040 65 0 0
22.0178 -0.2186 10.2050 110 0 0
29.1072 5.0289 12.7150 95 0 0
23.4566 5.1856 10.2120 75 0 0
27.1692 4.4240 12.7170 90 0 0
27.1440 0.4505 10.2200 128 0 0
17.6621 8.1545 12.7260 72 0 0
30.1958 2.1237 10.2210 65 0 0
16.6928 6.9164 12.7270 107 0 0
27.4968 7.9450 10.2250 66 0 0
24.6812 4.3133 12.7290 119 0 0
21.7981 7.8560 10.2260 115 0 0
17.3720 9.1996 12.7390 109 0 0
29.9680 7.6460 10.2330 80 0 0
24.8965 6.2565 12.7700 103 0 0
27.5424 0.9559 10.2380 73 0 0
21.2469 7.0174 12.7730 97 0 0
22.0567 6.5609 10.2600 96 0 0
17.9109 8.8579 12.7760 85 0 0
19.3902 1.8236 10.2860 67 0 0
17.7657 8.2019 12.7830 126 0 0
26.8592 1.4430 10.2890 90 0 0
23.9518 7.5126 12.7840 114 0 0
29.7043 8.2604 10.2920 65 0 0
28.3831 3.7106 12.8000 75 0 0
27.6151 5.1515 10.2940 120 0 0
25.8397 2.0561 12.8020 94 0 0
25.0990 1.2207 10.2980 61 0 0
18.6393 8.3587 12.8070 84 0 0
28.0794 5.0644 10.3050 91 0 0
16.6160 6.1741 12.8170 124 0 0
21.5185 -0.7562 10.3060 87 0 0
22.6036 5.2319 12.8190 62 0 0
19.0702 0.6353 10.3290 80 0 0
16.6642 6.8754 12.8260 79 0 0
21.5598 -0.7331 10.3330 104 0 0
27.9710 4.2594 12.8290 120 0 0
23.2029 0.3430 10.3350 74 0 0
20.9354 2.1008 12.8310 66 0 0
19.6157 8.0615 10.3430 152 0 0
22.8118 -0.5246 12.8390 80 0 0
22.0308 -0.6061 10.3440 133 0 0
28.7778 5.9997 12.8430 89 0 0
23.3335 5.3582 10.3520 104 0 0
24.1044 5.2893 12.8570 87 0 0
21.5695 -0.7018 10.3560 96 0 0
20.2165 4.1360 12.8630 68 0 0
22.0309 -0.5265 10.3590 119 0 0
22.8918 4.7389 12.8640 109 0 0
26.9513 1.3109 10.3610 71 0 0
26.9441 4.8588 12.8670 78 0 0
24.4404 5.5156 10.3630 107 0 0
26.4952 3.2635 12.8750 64 0 0
28.5396 0.9845 10.3700 60 0 0
27.9511 4.2894 12.8760 71 0 0
22.0801 -0.6950 10.3710 142 0 0
20.8600 3.7102 12.9070 117 0 0
23.3561 -0.8930 10.3740 105 0 0
24.7306 4.2294 12.9140 123 0 0
21.1572 0.5839 10.3750 121 0 0
27.9573 4.0379 12.9350 66 0 0
18.9158 3.4902 10.3970 129 0 0
22.7774 5.8334 12.9370 117 0 0
18.9894 8.3709 10.4110 120 0 0
24.8061 4.2093 12.9410 91 0 0
23.0699 -0.4843 10.4150 102 0 0
21.4588 6.7226 12.9520 77 0 0
29.6462 2.3783 10.4170 105 0 0
16.9704 9.3885 12.9540 77 0 0
21.8406 1.1364 10.4270 110 0 0
25.0910 8.4703 12.9590 75 0 0
26.0909 0.8893 10.4280 112 0 0
21.0673 2.7425 12.9600 89 0 0
29.5399 2.3693 10.4290 94 0 0
19.4749 9.6786 12.9680 65 0 0
19.0517 0.5904 10.4300 88 0 0
19.1189 5.2167 12.9940 71 0 0
23.4829 5.3633 10.4320 125 0 0
16.8969 6.2011 13.0010 115 0 0
28.6174 5.3844 10.4410 113 0 0
28.7816 5.6216 13.0240 70 0 0
24.5543 5.6230 10.4490 141 0 0
27.2656 4.1835 13.0280 80 0 0
26.2481 4.8630 10.4570 118 0 0
17.2557 8.2029 13.0330 116 0 0
29.7299 9.7147 10.4660 72 0 0
25.5648 6.1788 13.0340 88 0 0
27.6790 2.7505 10.4760 68 0 0
25.0712 4.1113 13.0440 79 0 0
26.3059 0.7167 10.4880 108 0 0
17.0704 8.3058 13.0660 142 0 0
26.1698 0.6891 10.4950 101 0 0
25.1594 4.0609 13.0720 64 0 0
27.2470 5.2307 10.4990 108 0 0
28.2570 6.2048 13.0730 62 0 0
22.3868 -1.1431 10.5020 68 0 0
17.1596 8.1570 13.0750 126 0 0
25.0083 0.9816 10.5070 115 0 0
20.2822 10.2500 13.0830 77 0 0
26.3190 4.8910 10.5100 85 0 0
17.9169 8.8719 13.0840 94 0 0
22.0098 8.1144 10.5250 106 0 0
19.6902 2.3453 13.0870 88 0 0
20.8171 3.2563 10.5300 69 0 0
25.6107 6.1623 13.0950 117 0 0
23.4825 5.4193 10.5340 74 0 0
17.9586 8.8977 13.0990 95 0 0
23.6612 4.9322 10.5390 103 0 0
26.1116 7.3719 13.1010 65 0 0
20.9244 3.1668 10.5500 91 0 0
27.7383 3.7534 13.1060 64 0 0
19.4634 7.8732 10.5540 87 0 0
19.6256 8.0648 13.1120 113 0 0
28.0182 5.8219 10.5550 64 0 0
27.7425 3.2985 13.1170 73 0 0
24.8979 5.6809 10.5580 120 0 0
21.5970 7.4543 13.1220 91 0 0
23.4345 5.4577 10.5620 78 0 0
26.5522 3.1360 13.1330 100 0 0
20.2983 8.3882 10.5630 91 0 0
25.1424 3.9828 13.1400 62 0 0
21.4911 2.7787 10.5650 88 0 0
19.6172 9.6505 13.1420 86 0 0
29.0142 1.9575 10.5700 69 0 0
26.3654 6.6366 13.1530 92 0 0
24.6858 2.5596 10.5720 129 0 0
18.7284 9.8185 13.1600 119 0 0
19.0768 5.6143 10.5730 89 0 0
17.6872 8.3669 13.1730 83 0 0
27.5253 -0.4152 10.5750 74 0 0
20.2006 4.0978 13.1830 85 0 0
24.9833 5.7436 10.5800 114 0 0
22.2451 5.1379 13.1890 86 0 0
21.2741 2.7184 10.5820 92 0 0
18.7543 8.1301 13.1960 82 0 0
20.1650 4.4742 10.5830 94 0 0
26.8255 4.0404 13.2110 75 0 0
28.1934 5.7559 10.5860 123 0 0
25.2179 3.9920 13.2150 70 0 0
26.5897 0.6564 10.5880 72 0 0
21.8173 8.7596 13.2290 95 0 0
27.8731 5.9459 10.5950 111 0 0
24.2156 5.4768 13.2300 64 0 0
26.3742 4.9913 10.5960 91 0 0
26.8461 1.6921 13.2350 66 0 0
22.2837 8.2137 10.5990 126 0 0
21.8345 8.7681 13.2360 119 0 0
26.9683 8.2096 10.6010 87 0 0
16.8386 6.4587 13.2430 74 0 0
29.3758 5.6055 10.6080 67 0 0
16.8864 6.4447 13.2440 68 0 0
22.3334 8.1900 10.6110 122 0 0
26.3241 6.5841 13.2550 90 0 0
29.4569 5.6016 10.6160 78 0 0
27.8833 6.1135 13.2590 67 0 0
27.7931 5.9188 10.6170 106 0 0
22.9211 4.8049 13.2620 107 0 0
22.0886 -0.7036 10.6200 70 0 0
27.1848 3.3013 13.2710 99 0 0
23.8796 8.7067 10.6230 105 0 0
27.3173 3.4169 13.2720 89 0 0
23.8382 6.4358 10.6240 104 0 0
27.1508 3.2748 13.2750 76 0 0
22.2752 8.0644 10.6260 110 0 0
20.5539 4.1454 13.2800 123 0 0
25.2285 5.9633 10.6290 113 0 0
19.7000 6.2712 13.2810 113 0 0
25.1605 5.8394 10.6310 107 0 0
21.4910 8.1435 13.2830 81 0 0
20.1264 10.1412 13.2860 64 0 0
27.2885 3.4750 13.2870 69 0 0
22.2819 4.8431 1.3060 138 0 0
27.2588 2.8307 13.3050 64 0 0
21.8242 4.5639 1.3070 88 0 0
23.1980 4.4128 13.3090 88 0 0
21.8142 4.4601 1.3110 101 0 0
19.6721 6.2466 13.3330 75 0 0
22.5030 4.7642 1.3150 105 0 0
20.1297 4.1150 13.3420 92 0 0
22.5543 3.9912 1.3160 100 0 0
19.1263 5.0677 13.3540 112 0 0
21.9402 4.0790 1.3190 112 0 0
21.8780 8.7499 13.3640 91 0 0
22.8226 4.1869 1.3200 132 0 0
25.2030 7.3288 13.3690 72 0 0
22.1882 4.9949 1.3210 120 0 0
19.1307 5.1100 13.3700 104 0 0
22.4253 4.7008 1.3240 83 0 0
21.2886 4.4451 13.3830 100 0 0
21.9042 4.7453 1.3250 88 0 0
18.1475 6.4637 13.4060 116 0 0
22.6658 3.9928 1.3260 113 0 0
25.1839 4.0158 13.4160 74 0 0
22.5459 4.7676 1.3270 128 0 0
19.8427 6.0744 13.4310 77 0 0
21.9864 4.0222 1.3280 108 0 0
26.2075 3.3431 13.4590 64 0 0
22.2129 4.9964 1.3300 138 0 0
25.3335 4.5182 13.4910 89 0 0
21.8248 4.4088 1.3310 114 0 0
25.2807 6.4545 13.4960 62 0 0
22.4008 4.7043 1.3320 119 0 0
19.1324 5.0989 13.4970 95 0 0
24.0610 5.1791 13.5060 100 0 0
21.9455 4.9936 0.1560 82 0 0
18.9541 6.3063 13.5320 117 0 0
21.6972 4.3762 0.1570 78 0 0
23.9030 8.1380 13.5360 65 0 0
22.4345 4.1661 0.1590 85 0 0
22.1112 4.1801 13.5370 63 0 0
22.0703 4.0473 0.1600 109 0 0
17.5246 8.3561 13.5520 71 0 0
22.7480 4.5663 0.1640 77 0 0
24.1148 5.2452 13.5550 103 0 0
21.7024 4.6444 0.1650 116 0 0
23.4010 4.1705 13.5580 83 0 0
21.6896 4.4615 0.1670 64 0 0
21.9998 7.5895 13.5680 77 0 0
22.6902 4.6430 0.1680 110 0 0
16.4152 9.0428 13.5800 87 0 0
22.6733 4.6531 0.1690 68 0 0
24.9241 7.5505 13.5830 72 0 0
22.2477 4.1566 0.1700 91 0 0
25.7677 3.6642 13.5920 98 0 0
22.3998 4.1563 0.1720 122 0 0
18.6561 9.2398 13.5950 63 0 0
22.0323 4.0473 0.1730 89 0 0
17.9506 7.3873 13.6090 69 0 0
21.8711 4.2322 0.1740 64 0 0
24.9027 7.6933 13.6190 94 0 0
22.6083 4.2546 0.1780 86 0 0
23.0208 8.5776 13.6260 71 0 0
22.6810 4.7773 0.1800 107 0 0
23.1800 9.0610 13.6280 62 0 0
22.0526 4.0482 0.1830 94 0 0
24.0546 5.0583 13.6300 84 0 0
21.9843 4.1309 0.1840 109 0 0
17.6449 7.4665 13.6360 79 0 0
21.9812 4.0798 0.1850 104 0 0
17.6229 7.4387 13.6390 99 0 0
21.9795 4.1655 0.1860 79 0 0
17.0530 7.5210 13.6410 83 0 0
21.8867 4.2224 0.1870 137 0 0
23.0492 6.5041 13.6420 109 0 0
21.7059 4.6309 0.1880 100 0 0
21.4406 4.4986 13.6430 98 0 0
21.7818 4.3136 0.1890 117 0 0
16.3908 9.7100 13.6490 60 0 0
22.5566 4.7923 0.1910 73 0 0
16.9230 7.4243 13.6560 102 0 0
21.7453 4.3306 0.1920 93 0 0
18.5787 9.8450 13.6590 126 0 0
22.3565 4.1673 0.1970 106 0 0
17.7570 9.2560 13.6610 73 0 0
21.9794 4.2107 0.1990 137 0 0
16.7912 7.3508 13.6630 63 0 0
21.7022 4.6846 0.2000 108 0 0
16.8353 7.3525 13.6710 77 0 0
21.6911 4.5409 0.2010 83 0 0
21.6739 4.4785 0.2020 102 0 0
21.8384 4.3046 0.2030 110 0 0
22.2594 4.3742 13.6890 63 0 0
21.9811 4.0834 0.2040 94 0 0
22.1529 4.1852 13.7000 70 0 0
22.1176 4.0549 0.2050 89 0 0
18.8484 4.6498 13.7050 91 0 0
21.7670 4.3190 0.2060 116 0 0
19.1012 6.4273 13.7170 109 0 0
22.6701 4.7720 0.2090 71 0 0
23.0344 4.9045 13.7240 82 0 0
21.8728 4.2420 0.2100 93 0 0
16.8579 10.2395 13.7320 74 0 0
21.7139 4.7149 0.2110 102 0 0
18.6414 8.4251 13.7330 66 0 0
21.6872 4.3973 0.2140 118 0 0
22.3060 3.8072 13.7380 75 0 0
21.6871 4.4426 0.2160 105 0 0
26.2975 2.5607 13.7390 73 0 0
21.8974 4.2263 0.2180 101 0 0
16.7483 7.3058 13.7610 94 0 0
22.3423 3.7766 13.7820 96 0 0
16.0409 10.6664 13.8030 63 0 0
23.8426 8.1750 7.2030 96 0 0
21.3980 3.5883 13.8060 60 0 0
23.2519 -3.4875 7.2050 89 0 0
22.2501 7.0219 13.8080 60 0 0
18.8247 -1.9378 7.2390 112 0 0
16.4741 7.6300 13.8160 134 0 0
28.6010 8.1202 7.2500 74 0 0
23.2602 6.6458 13.8490 79 0 0
25.2754 -2.7193 7.2530 78 0 0
18.0831 7.2777 13.8510 75 0 0
23.3374 1.3452 7.2600 123 0 0
22.2083 4.2108 13.8580 61 0 0
23.4390 0.9726 7.2660 154 0 0
19.6896 3.8593 13.8670 88 0 0
22.4913 7.3894 7.2690 67 0 0
18.6980 10.2672 13.8680 94 0 0
22.4034 -1.2550 7.2720 115 0 0
18.9489 6.9221 13.8910 81 0 0
28.8798 5.3665 7.2760 89 0 0
16.4229 7.9624 13.8960 138 0 0
23.3656 1.0591 7.2770 133 0 0
18.0070 9.1743 13.9080 85 0 0
28.2770 2.9856 7.2780 86 0 0
18.7891 6.6855 13.9110 81 0 0
22.2934 2.7626 7.2800 95 0 0
18.9719 9.1653 13.9150 95 0 0
23.4279 1.0455 7.2840 97 0 0
18.8592 9.2400 13.9360 125 0 0
25.0661 -0.4712 7.2960 120 0 0
21.5894 4.5670 13.9430 105 0 0
19.1691 -2.2381 7.2990 110 0 0
16.5006 8.2841 13.9450 78 0 0
26.9936 4.5044 7.3120 60 0 0
24.2456 0.2310 7.3130 88 0 0
23.7247 8.1651 7.3140 61 0 0
25.2165 -0.7188 7.3150 148 0 0
18.5616 6.3229 13.9850 127 0 0
23.4416 0.6291 7.3190 115 0 0
20.4211 3.3316 13.9910 77 0 0
23.5502 0.5430 7.3300 79 0 0
17.9077 10.0150 14.0030 67 0 0
20.7352 -1.8971 7.3320 79 0 0
26.7590 3.0581 7.3350 120 0 0
26.4179 7.9714 7.3370 93 0 0
25.8887 5.3927 14.0090 86 0 0
23.7931 5.6069 14.0210 109 0 0
24.7497 6.2165 14.0470 71 0 0
17.8932 9.8848 14.0570 64 0 0
26.1335 4.4099 14.0690 117 0 0
26.1319 4.2459 14.0800 63 0 0
20.6124 -3.2363 7.3390 60 0 0
25.8523 4.8895 14.0910 88 0 0
23.2124 1.9070 7.3410 128 0 0
24.2281 6.9169 14.1140 63 0 0
20.1891 -3.0358 7.3420 73 0 0
16.7001 7.9010 14.1300 68 0 0
23.1933 1.3499 7.3430 148 0 0
19.1144 7.1332 14.1590 96 0 0
23.5285 -2.9726 7.3470 77 0 0
17.2903 8.2493 14.1600 68 0 0
18.9849 4.9506 14.1670 109 0 0
21.1328 7.1547 14.1680 77 0 0
19.4311 7.0852 14.2350 71 0 0
19.6986 7.1970 14.2410 92 0 0
17.9699 8.5543 14.2460 77 0 0
19.5519 7.1534 14.2710 152 0 0
18.0209 8.6172 14.2810 60 0 0
17.5484 9.1111 14.2900 85 0 0
22.6770 4.6166 0.9350 118 0 0
19.1856 7.4761 14.2930 61 0 0
22.5636 4.6368 0.9360 94 0 0
17.6745 8.0347 14.3020 66 0 0
22.2929 4.9195 0.9370 109 0 0
19.7656 6.8525 14.3040 73 0 0
21.7740 4.3558 0.9380 115 0 0
17.2353 8.8593 14.3180 77 0 0
22.3464 4.7797 0.9390 74 0 0
16.3746 7.9355 14.3450 64 0 0
21.7826 4.5015 0.9400 107 0 0
16.3231 7.9494 14.3460 108 0 0
21.8840 4.1862 0.9420 134 0 0
20.1925 6.0350 14.3510 77 0 0
22.2771 3.9851 0.9440 103 0 0
17.7050 8.1285 14.3560 63 0 0
22.6564 4.5297 0.9450 97 0 0
17.7046 7.8049 14.3670 89 0 0
21.9178 4.8283 0.9460 93 0 0
17.1166 9.6166 14.3710 66 0 0
22.0593 4.8879 0.9470 94 0 0
16.9536 8.3984 14.3790 67 0 0
22.5636 4.1324 0.9490 131 0 0
19.8221 6.4884 14.4840 75 0 0
22.6303 4.6533 0.9500 119 0 0
18.9626 6.7640 14.5040 72 0 0
22.5139 4.7193 0.9510 99 0 0
18.9666 6.3371 14.5720 64 0 0
22.5875 4.1714 0.9520 130 0 0
17.7856 9.2970 14.5810 61 0 0
22.0174 4.0980 0.9530 117 0 0
17.8013 9.3094 14.5850 63 0 0
22.6819 4.5698 0.9540 113 0 0
19.0037 4.7350 14.5900 69 0 0
22.6024 4.4831 0.9580 116 0 0
18.9940 6.3209 14.6480 62 0 0
22.6537 4.5266 0.9600 92 0 0
23.6985 5.2989 14.7020 61 0 0
22.5727 4.1230 0.9610 95 0 0
17.2651 9.0702 14.7060 63 0 0
21.8343 4.2099 0.9620 147 0 0
19.8423 4.7923 14.7160 123 0 0
22.5764 4.6447 0.9630 105 0 0
17.9394 9.3237 14.7300 60 0 0
22.3458 4.8429 0.9650 102 0 0
22.2877 4.7015 0.9660 103 0 0
19.9521 5.3008 14.7350 74 0 0
22.3191 4.7420 0.9670 112 0 0
19.9817 5.3022 14.7410 72 0 0
21.8906 4.7541 0.9680 120 0 0
19.2323 5.5502 14.7440 69 0 0
21.7813 4.3646 0.9690 134 0 0
19.1855 5.5246 14.7720 82 0 0
21.8041 4.6305 0.9700 100 0 0
19.6294 5.2982 14.7760 80 0 0
22.4333 4.0881 0.9710 103 0 0
19.2803 5.5707 14.7940 81 0 0
22.3414 4.7884 0.9720 121 0 0
19.8686 4.7534 14.7960 90 0 0
21.9867 4.8660 0.9730 84 0 0
23.9177 5.0632 14.8170 74 0 0
21.9562 4.1552 0.9740 120 0 0
23.9051 5.0653 14.8290 61 0 0
22.6504 4.5243 0.9750 99 0 0
19.1857 5.5676 14.8770 67 0 0
21.8689 4.7363 0.9760 91 0 0
19.4191 5.6810 14.9190 67 0 0
21.8819 4.1823 0.9770 167 0 0
19.3496 5.8070 14.9230 76 0 0
22.6390 4.4624 0.9780 99 0 0
19.4282 5.6923 14.9320 103 0 0
21.8062 4.5928 0.9790 100 0 0
19.3322 5.8473 14.9350 62 0 0
22.3908 4.6960 0.9800 150 0 0
17.5388 9.2182 14.9420 71 0 0
22.5969 4.1719 0.9810 109 0 0
19.3084 5.9174 14.9700 85 0 0
21.8219 4.2170 0.9820 143 0 0
19.3470 4.7204 14.9970 63 0 0
22.3273 4.7564 0.9830 116 0 0
19.3310 4.7067 15.0080 60 0 0
21.7793 4.4991 0.9840 113 0 0
19.3392 5.9587 15.0090 76 0 0
22.6816 4.6137 0.9850 93 0 0
19.1412 4.6461 15.0190 66 0 0
22.6210 4.4705 0.9860 111 0 0
19.3656 5.9872 15.0500 77 0 0
22.1347 4.0290 0.9870 105 0 0
19.0945 6.1422 15.0730 93 0 0
22.6530 4.3854 0.9880 130 0 0
19.6020 5.7306 15.1170 62 0 0
22.4370 4.0724 0.9890 109 0 0
19.6355 5.7334 15.1270 70 0 0
19.1341 4.7757 15.1320 62 0 0
19.6720 5.7580 15.1610 97 0 0
22.0110 4.1278 0.3410 113 0 0
19.7280 5.7706 15.1820 101 0 0
21.6893 4.4307 0.3460 95 0 0
19.4294 6.0702 15.1850 89 0 0
22.0317 4.0812 0.3490 99 0 0
19.4362 6.0970 15.2390 79 0 0
21.7268 4.5857 0.3500 97 0 0
19.4490 6.1673 15.2910 70 0 0
21.7191 4.6867 0.3510 94 0 0
19.5319 5.8194 15.2920 98 0 0
22.3411 4.1528 0.3520 93 0 0
19.4286 6.2239 15.3050 65 0 0
22.0872 4.0616 0.3540 94 0 0
19.0545 5.4431 15.3280 73 0 0
21.7565 4.3079 0.3550 93 0 0
19.2206 5.8701 15.4340 82 0 0
22.0287 4.1599 0.3560 76 0 0
19.2218 5.8060 15.5150 70 0 0
21.8733 4.2742 0.3570 138 0 0
19.0595 5.4429 15.5320 89 0 0
21.8469 4.2787 0.3580 97 0 0
21.9260 4.9259 0.3600 84 0 0
22.3110 4.8991 0.9900 117 0 0
21.6913 4.4590 0.3620 81 0 0
21.7955 4.4641 0.9910 111 0 0
21.7042 4.4131 0.3640 75 0 0
21.7848 4.4810 0.9920 122 0 0
21.7080 4.3679 0.3660 116 0 0
22.1372 4.1190 0.9930 109 0 0
22.0324 4.1478 0.3680 111 0 0
22.0442 4.8833 0.9940 92 0 0
21.8110 4.7872 0.3730 89 0 0
21.8660 4.1857 0.9950 108 0 0
21.9279 4.9163 0.3750 81 0 0
22.5874 4.1247 0.9960 131 0 0
22.6429 4.6598 0.3760 93 0 0
21.8165 4.2230 0.9970 134 0 0
21.8707 4.2710 0.3770 114 0 0
22.6677 4.6333 0.9980 102 0 0
22.3229 4.1473 0.3780 86 0 0
21.7786 4.3321 0.9990 129 0 0
22.0309 4.1308 0.3790 138 0 0
22.0508 4.0836 0.3800 73 0 0
25.4664 6.1656 10.6340 133 0 0
22.0402 4.1055 0.3810 83 0 0
22.3618 -1.1510 10.6370 88 0 0
21.9218 4.9058 0.3840 61 0 0
19.1213 8.3367 10.6530 112 0 0
21.7439 4.5684 0.3850 101 0 0
25.5898 6.4744 10.6540 67 0 0
21.9228 4.2111 0.3920 134 0 0
29.6188 1.8018 10.6550 78 0 0
21.8967 4.2429 0.3930 76 0 0
26.2138 6.7315 10.6610 122 0 0
22.4802 4.1690 0.3980 63 0 0
28.1443 2.6690 10.6670 69 0 0
22.2334 4.1110 0.3990 102 0 0
25.5819 6.4701 10.6700 116 0 0
21.7260 4.6353 0.4000 82 0 0
23.5016 5.3263 10.6710 125 0 0
22.0575 4.2267 0.4020 86 0 0
25.0766 2.7880 10.6760 104 0 0
21.7090 4.3821 0.4070 90 0 0
23.4378 0.4820 10.6820 67 0 0
22.6268 4.6998 0.4090 66 0 0
28.6613 3.3219 10.6840 71 0 0
22.6896 4.6022 0.4110 69 0 0
20.4613 6.3461 10.6870 85 0 0
21.9625 4.1792 0.4120 109 0 0
24.8202 0.6014 10.6950 76 0 0
22.0441 4.1573 0.4140 96 0 0
27.8244 5.7964 10.7030 106 0 0
21.8896 4.2563 0.4150 141 0 0
20.8717 1.5722 10.7060 65 0 0
22.3574 4.1435 0.4160 90 0 0
25.0169 2.6870 10.7070 111 0 0
22.3850 4.1409 0.4220 109 0 0
21.4600 7.3258 10.7150 67 0 0
22.0314 4.2046 0.4250 123 0 0
19.0561 3.0090 10.7180 61 0 0
21.8766 4.2679 0.4270 62 0 0
26.6320 5.1256 10.7190 91 0 0
22.0484 4.1737 0.4290 64 0 0
21.4716 2.6572 10.7200 105 0 0
21.7472 4.5707 0.4310 109 0 0
27.7153 2.5692 10.7250 142 0 0
22.0626 4.0895 0.4330 127 0 0
25.3768 9.7018 10.7270 65 0 0
22.6414 4.6514 0.4340 80 0 0
27.5579 -0.1632 10.7340 101 0 0
22.0491 4.1449 0.4360 122 0 0
26.2582 0.0268 10.7350 75 0 0
22.3161 4.1413 0.4370 82 0 0
25.8888 6.6648 10.7520 102 0 0
21.8956 4.2409 0.4380 108 0 0
26.8895 0.5976 10.7620 124 0 0
22.1610 4.0611 0.4390 99 0 0
28.3038 5.6135 10.7660 103 0 0
21.7953 4.2754 0.4400 99 0 0
27.8487 5.9336 10.7690 94 0 0
21.7564 4.5784 0.4430 100 0 0
28.6272 2.7983 10.7790 72 0 0
22.4470 4.1431 0.4450 78 0 0
18.6186 -0.3044 10.7810 122 0 0
22.0673 4.2128 0.4460 69 0 0
24.9095 0.4870 10.7830 78 0 0
23.7633 0.4805 10.7860 116 0 0
22.4766 8.3046 10.7880 65 0 0
28.6693 2.8011 10.7890 73 0 0
18.8004 -0.3156 10.7910 74 0 0
23.6599 -1.2416 10.7920 74 0 0
25.2079 -1.6982 10.7950 62 0 0
24.1260 1.4125 10.8010 62 0 0
23.9621 3.7956 10.8080 122 0 0
23.5643 5.3486 10.8090 119 0 0
27.5525 2.6159 10.8150 78 0 0
22.4448 -1.4817 10.8240 87 0 0
26.9708 5.4848 10.8250 107 0 0
26.3361 10.5606 10.8330 93 0 0
26.8724 5.4092 10.8380 106 0 0
22.3371 8.1069 10.8470 92 0 0
22.3582 8.1169 10.8510 66 0 0
27.4805 5.6784 10.8570 102 0 0
29.2716 6.7219 10.8580 118 0 0
25.0523 7.4244 10.8640 89 0 0
21.0720 1.1187 10.8680 80 0 0
26.1740 8.9268 10.8730 96 0 0
21.7007 -1.7490 10.8800 82 0 0
27.4775 5.6775 10.8860 88 0 0
28.1490 6.1653 10.8890 100 0 0
29.3505 6.7263 10.8900 102 0 0
20.1304 4.3359 10.8920 104 0 0
23.6936 4.4739 10.8950 122 0 0
26.8363 5.3078 10.8980 115 0 0
21.6475 -1.8367 10.9020 61 0 0
22.1420 8.3119 10.9040 102 0 0
26.8910 6.7018 10.9130 60 0 0
23.7293 8.7254 10.9140 112 0 0
25.0277 9.6744 10.9150 105 0 0
24.1183 6.9666 10.9200 71 0 0
23.5461 5.4471 10.9290 128 0 0
23.6889 4.3800 10.9340 114 0 0
